ply
format ascii 1.0
element vertex 494
property float x
property float y
property float z
property uchar red
property uchar green
property uchar blue
element face 0
property list uchar int vertex_indices
end_header
-2.2820988 1.5639118 -4.0231767 152 161 175
-2.0828214 1.5533639 -3.9956489 145 154 168
-1.8949456 1.5500921 -3.9868352 154 163 175
-1.702321 1.5418044 -3.9651272 155 164 178
-1.5149751 1.5368696 -3.9520428 159 168 182
-1.3257917 1.5284537 -3.9300132 168 179 192
-1.139236 1.5208701 -3.9101272 166 177 191
-0.9532887 1.511385 -3.8853574 160 171 185
-0.7693839 1.5014812 -3.859517 153 164 178
-0.5878869 1.491709 -3.8340197 159 169 183
-0.4081668 1.4799486 -3.8034196 157 167 181
-0.23071682 1.4648548 -3.7642612 152 161 175
-0.056838155 1.4494681 -3.7243586 147 158 172
0.11311848 1.4306728 -3.6757083 144 153 167
0.2783796 1.4106723 -3.6239724 140 149 163
0.43812093 1.3882097 -3.5659244 133 142 156
0.5920817 1.3646945 -3.505185 127 136 150
0.73957944 1.3395665 -3.4403167 127 136 150
0.8821642 1.3159894 -3.379443 133 142 154
1.0185146 1.2915899 -3.3164701 131 140 154
1.1547136 1.2733965 -3.26944 129 138 152
1.2923626 1.2608236 -3.2368436 131 140 154
1.4272157 1.2484142 -3.2046735 136 144 158
1.5558741 1.2334276 -3.1658976 146 155 168
1.6934093 1.2274503 -3.1502438 144 153 166
1.8595972 1.2415527 -3.1861074 144 153 167
-2.3544877 1.4829042 -4.3194375 135 146 157
-2.148821 1.4783826 -4.305817 140 149 161
-1.9435343 1.4732159 -4.290323 151 160 174
-1.7422092 1.4702095 -4.28112 146 155 169
-1.5393599 1.4649688 -4.2654147 152 161 175
-1.337807 1.4595907 -4.2493134 161 172 183
-1.1360855 1.4521307 -4.227156 159 170 184
-0.93483305 1.4422808 -4.1980486 152 162 176
-0.7370823 1.4340721 -4.173723 154 165 178
-0.54036546 1.422743 -4.140324 156 165 179
-0.3458566 1.4079626 -4.096891 157 166 178
-0.15545264 1.3942997 -4.0567193 150 159 171
0.03121038 1.3779718 -4.0088024 144 153 167
0.21317422 1.3597049 -3.9552584 150 159 173
0.39010713 1.3410363 -3.9005573 148 157 171
0.55992025 1.3174328 -3.8315184 145 154 167
0.7218288 1.2910386 -3.7543814 151 160 174
0.87329936 1.2598182 -3.6632302 152 161 173
1.0167 1.2289782 -3.573204 144 153 166
1.1576865 1.2042412 -3.5009346 140 149 163
1.2953598 1.1825459 -3.4375193 147 156 170
1.4285179 1.1619183 -3.37722 152 161 175
1.556945 1.1418852 -3.3186603 150 159 173
1.6982172 1.1340238 -3.295473 150 159 171
1.842953 1.129584 -3.28223 154 163 177
1.9758031 1.1190928 -3.2514136 145 154 166
-2.6366649 1.3796078 -4.6339936 145 154 166
-2.431597 1.3846619 -4.6504483 138 147 159
-2.2089226 1.3796835 -4.633216 142 151 163
-1.9939839 1.3789743 -4.6303196 144 153 167
-1.7815862 1.3800483 -4.633409 140 149 163
-1.5597794 1.3731123 -4.6096144 141 150 162
-1.342096 1.3681691 -4.5925126 149 158 170
-1.1227765 1.3593646 -4.562457 159 168 180
-0.9066593 1.3512369 -4.53468 157 166 180
-0.69413346 1.3451518 -4.5137606 161 171 184
-0.4819079 1.334619 -4.477927 158 167 179
-0.27256036 1.3221221 -4.435513 156 166 180
-0.06695119 1.3066432 -4.3831086 150 160 174
0.1336438 1.2892364 -4.3242497 153 162 176
0.32888842 1.2720606 -4.2661796 156 167 180
0.5179833 1.2529227 -4.201544 154 165 178
0.6970707 1.226637 -4.112962 153 164 177
0.8686818 1.2012933 -4.0275574 151 160 174
1.0287178 1.1717237 -3.9280083 147 156 170
1.1794225 1.1419995 -3.8279634 147 156 170
1.328254 1.1184604 -3.748665 144 153 167
1.4673586 1.093115 -3.6633327 147 156 170
1.5900747 1.0620732 -3.5589375 148 157 171
1.716414 1.0390506 -3.4814253 157 166 180
1.8767624 1.0388042 -3.4802122 161 170 184
2.0059495 1.0227166 -3.4259503 162 171 185
-2.7398412 1.2628118 -5.010959 145 154 166
-2.5098207 1.2636734 -5.0137763 143 152 164
-2.273145 1.2610039 -5.002587 153 162 174
-2.0522492 1.2674617 -5.027597 152 161 173
-1.8147862 1.2640096 -5.013306 158 167 179
-1.5719223 1.2552118 -4.9778237 155 165 177
-1.3396462 1.2532794 -4.9695663 155 164 176
-1.1048969 1.2477238 -4.946948 154 165 176
-0.8717633 1.2415321 -4.9218144 153 164 177
-0.6433975 1.2401084 -4.9155827 156 167 180
-0.412652 1.2299542 -4.8747587 159 170 183
-0.18515696 1.216534 -4.8210044 161 170 184
0.037389737 1.2029532 -4.7666254 163 172 186
0.25375846 1.1838895 -4.690543 155 166 179
0.46350792 1.1658072 -4.618366 160 170 184
0.66281664 1.141199 -4.5203624 160 170 184
0.8522269 1.1154653 -4.4179254 152 162 176
1.0358894 1.09364 -4.3309865 154 162 176
1.2074409 1.0681919 -4.2297287 157 166 180
1.373781 1.0458887 -4.140942 162 171 183
1.5306257 1.0227125 -4.0487223 169 178 190
1.6771017 0.9984278 -3.9521377 169 178 190
1.8109839 0.97216654 -3.847755 175 184 196
1.9677587 0.9618042 -3.8062975 172 181 193
2.1167026 0.9496389 -3.7577178 168 177 189
2.2470827 0.93163085 -3.6860394 170 179 191
-3.069928 1.1087481 -5.3788595 167 176 188
-2.8214388 1.1090156 -5.379445 167 176 188
-2.5637727 1.1053629 -5.3610215 165 175 186
-2.3142471 1.1047975 -5.3575716 164 173 185
-2.0765631 1.1104128 -5.384083 156 167 178
-1.8207092 1.106495 -5.364381 145 156 168
-1.5700465 1.1049696 -5.356279 161 173 184
-1.3239422 1.1066556 -5.3637395 166 177 192
-1.0740756 1.105213 -5.356042 172 182 197
-0.8246212 1.1034112 -5.3466043 180 191 203
-0.57803905 1.1054944 -5.3559866 175 188 202
-0.3276518 1.0978396 -5.318205 158 169 182
-0.080345 1.084932 -5.254998 161 169 183
0.16135031 1.0734389 -5.198656 162 171 185
0.39495453 1.054202 -5.10484 169 176 191
0.61873996 1.0330334 -5.001698 156 164 178
0.82795423 1.005736 -4.8689213 151 160 174
1.0280651 0.9814639 -4.7508197 181 190 202
1.2244343 0.96283036 -4.6600313 190 197 210
1.4057412 0.93973184 -4.547666 191 201 211
1.583821 0.92079365 -4.4554553 182 191 202
1.7436843 0.89686584 -4.339135 167 176 188
1.8859526 0.86978114 -4.2075796 166 173 185
2.0238636 0.8459595 -4.0918365 177 184 195
2.186679 0.835746 -4.041916 183 191 201
2.2918549 0.8068584 -3.9017363 169 179 190
-3.11329 0.9089866 -5.6764326 196 203 214
-2.8520892 0.9096954 -5.6799946 183 194 207
-2.579812 0.9066387 -5.6600547 175 186 198
-2.3318636 0.9123929 -5.6951036 179 189 201
-2.0777638 0.91688323 -5.7222548 168 181 193
-1.8136643 0.9176053 -5.7258906 173 183 197
-1.5554873 0.92205995 -5.752807 172 183 196
-1.2956456 0.9271362 -5.7835913 195 203 213
-1.0289184 0.9286067 -5.791882 221 226 233
-0.76247174 0.9314028 -5.808436 222 230 236
-0.4935816 0.9325504 -5.8147073 222 230 236
-0.22171485 0.9238525 -5.759614 203 211 219
0.04520137 0.91771024 -5.7204623 199 206 215
0.3070386 0.90719646 -5.654085 220 225 232
0.5586874 0.8902091 -5.5473995 225 230 237
0.7965881 0.86898726 -5.414369 223 229 236
1.0199107 0.8458846 -5.2696657 233 237 245
1.2317374 0.8240521 -5.1329145 248 253 254
1.4364705 0.80533826 -5.0156226 229 232 240
1.62643 0.78473234 -4.886587 220 225 232
1.797447 0.76116174 -4.7391386 229 234 240
1.9460266 0.7342752 -4.5710993 221 227 232
2.0809288 0.70803016 -4.4071016 221 223 227
2.2452621 0.69561017 -4.3291645 211 215 221
2.382036 0.6774008 -4.215238 212 218 225
2.50529 0.65840906 -4.09648 204 208 216
-3.3549473 0.6678532 -5.8601027 202 210 220
-3.1033802 0.6723866 -5.898764 225 229 234
-2.8312235 0.6728884 -5.9020596 233 239 242
-2.5640814 0.6748004 -5.917717 224 230 237
-2.3129642 0.68187827 -5.978647 192 203 214
-2.051157 0.687284 -6.0249014 176 187 200
-1.7838014 0.69221944 -6.067017 164 177 190
-1.5153182 0.69845736 -6.120527 181 190 202
-1.2367537 0.70181733 -6.14881 203 211 219
-0.95209944 0.70264935 -6.154945 189 195 203
-0.6692869 0.70606697 -6.183716 199 207 214
-0.38146022 0.705224 -6.17518 212 220 226
-0.093971744 0.7012572 -6.1393085 176 188 197
0.18985781 0.695964 -6.0918427 167 174 186
0.46698824 0.68724966 -6.014465 172 181 192
0.7325864 0.67450476 -5.9018607 211 219 225
0.9867201 0.66106474 -5.783219 194 203 213
1.2326987 0.64911705 -5.67767 189 198 208
1.4597245 0.6331863 -5.537341 198 207 217
1.6774433 0.61861885 -5.40898 198 207 217
1.868589 0.59934205 -5.2395124 205 213 221
2.0184166 0.572797 -5.0066032 219 226 229
2.1515923 0.54751223 -4.7847915 210 216 221
2.2856872 0.52718586 -4.6063685 215 221 227
2.4470649 0.51610464 -4.5087433 222 227 229
2.5748122 0.50024474 -4.3694334 157 162 163
-3.1728191 0.39027804 -5.767099 126 127 124
-2.925725 0.3931989 -5.8086634 125 125 124
-2.6944656 0.39904535 -5.893392 111 109 113
-2.4937215 0.41123542 -6.0716887 147 155 168
-2.2519727 0.41889334 -6.183023 149 164 175
-1.9905185 0.42456767 -6.265043 150 156 164
-1.7068849 0.42661592 -6.293549 178 187 198
-1.4287198 0.43112868 -6.358369 174 183 195
-1.131493 0.4306953 -6.3502617 150 151 164
-0.83788216 0.43175712 -6.364188 161 168 181
-0.5421501 0.432192 -6.368873 146 161 171
-0.24431533 0.4297595 -6.3313293 117 121 128
0.04993713 0.42625222 -6.2779865 126 138 147
0.33675313 0.41961876 -6.1786613 126 136 144
0.61242074 0.41167885 -6.0601687 116 124 132
0.8759154 0.40319368 -5.933719 166 177 190
1.1310931 0.3959025 -5.8248944 167 179 193
1.3641369 0.38520864 -5.6661057 173 184 196
1.5692772 0.37139696 -5.4615774 140 155 164
1.754816 0.35745987 -5.255318 132 141 151
1.9258971 0.3443615 -5.0614896 128 136 142
2.0585473 0.32800454 -4.8199115 147 154 161
2.2239544 0.31958053 -4.694932 146 153 161
2.4129002 0.3157552 -4.6375175 137 141 148
2.5701993 0.30876416 -4.533682 156 158 164
2.724561 0.3025155 -4.4407916 148 155 160
-2.985426 0.1102783 -5.198518 148 152 146
-2.7569013 0.11089949 -5.223986 131 134 132
-2.519041 0.11121496 -5.235049 134 135 134
-2.2737331 0.1112179 -5.2314186 121 123 128
-2.0240982 0.11096631 -5.2158494 115 116 118
-1.7673376 0.11018075 -5.1752596 106 107 107
-1.5105456 0.1091203 -5.1218486 123 125 127
-1.2727509 0.10926677 -5.12503 147 149 153
-1.3068008 0.13824795 -6.4774756 169 179 188
-1.0035152 0.1381449 -6.4680114 150 159 169
-0.7009399 0.13801546 -6.457327 144 154 160
-0.39919433 0.13784191 -6.4445972 107 113 116
-0.09759957 0.13627142 -6.366705 73 75 77
0.19669212 0.1346444 -6.2862873 101 109 117
0.47918084 0.13181946 -6.15017 95 103 110
0.7451983 0.12833294 -5.9834456 116 122 127
0.99535704 0.124798134 -5.8147097 138 144 151
1.2301242 0.12128916 -5.647418 161 171 189
1.4530257 0.11807676 -5.4941416 127 136 146
1.6726981 0.115623765 -5.37634 120 129 139
1.8628005 0.11204634 -5.2065406 133 140 142
1.960745 0.10439313 -4.8480277 124 131 132
2.1167052 0.10110393 -4.692197 149 157 163
2.3109229 0.10009971 -4.642367 113 117 119
2.4983873 0.09900933 -4.5886264 130 139 139
2.7073035 0.09888474 -4.579607 144 147 151
-2.6140788 -0.12020278 -4.736777 110 110 111
-2.3911664 -0.12004034 -4.7326617 120 124 128
-2.16695 -0.11978645 -4.724931 107 115 119
-1.9416536 -0.11942387 -4.712898 31 34 35
-1.7074597 -0.11836982 -4.6735168 46 48 53
-1.4780797 -0.11740946 -4.637803 48 48 50
-1.2632703 -0.11749657 -4.6435065 45 48 52
-1.0437945 -0.1171234 -4.6309924 185 189 195
-1.1344347 -0.1604023 -6.347595 116 117 120
-0.85826683 -0.1641628 -6.4997215 102 108 111
-0.5568511 -0.16466671 -6.522872 83 86 86
-0.24978901 -0.16292317 -6.4568896 104 107 109
0.05080571 -0.1600987 -6.347943 97 100 102
0.34148285 -0.15737744 -6.242988 95 101 106
0.6169431 -0.15330604 -6.0842924 106 112 117
0.862891 -0.14673825 -5.8262177 61 43 38
1.1081251 -0.14319132 -5.6880198 58 40 35
1.3413444 -0.13973767 -5.5533986 107 111 118
1.5764399 -0.13754393 -5.468797 122 134 143
1.7961295 -0.13478784 -5.3617177 72 78 81
1.8899237 -0.12441486 -4.9510407 86 91 91
2.0117564 -0.117938705 -4.6953044 106 110 112
2.2043746 -0.11646258 -4.6387377 64 67 66
2.396423 -0.11521305 -4.5911584 84 85 84
2.5990658 -0.11462589 -4.5699754 112 117 120
2.8660738 -0.11673627 -4.65652 127 132 133
-2.479972 -0.31049645 -4.304964 126 132 139
-2.267693 -0.30892134 -4.2836647 125 130 137
-2.064197 -0.308365 -4.276494 113 117 124
-1.8617668 -0.30787855 -4.2702923 91 96 106
-1.6462061 -0.3048592 -4.228937 66 72 81
-1.4437562 -0.303791 -4.214653 77 82 91
-1.2385691 -0.30173764 -4.1866903 82 87 96
-1.0360123 -0.2996972 -4.158899 106 112 121
-0.851632 -0.30321166 -4.2082305 194 201 204
-0.86356556 -0.39973244 -5.5491285 131 135 137
-0.63341403 -0.41903657 -5.817946 142 143 142
-0.35262182 -0.40880015 -5.676506 160 171 172
-0.08911258 -0.417794 -5.802178 117 114 115
0.17658971 -0.404827 -5.6227617 172 176 179
0.42888415 -0.3949367 -5.486052 73 75 77
0.6734133 -0.38792208 -5.3892717 83 86 88
0.9123836 -0.3823596 -5.3126497 90 92 99
1.1461028 -0.37741953 -5.244661 108 111 114
1.3661711 -0.3704968 -5.149091 105 104 103
1.5925757 -0.36708888 -5.1023674 90 83 62
1.8267074 -0.3660995 -5.089265 60 56 39
1.9257145 -0.34138292 -4.746157 79 82 80
2.0962555 -0.33313164 -4.6319933 132 130 130
2.267741 -0.32655302 -4.5410695 176 188 196
2.4606602 -0.32391247 -4.5049148 166 172 175
2.6814663 -0.325058 -4.521436 162 167 172
-2.1873806 -0.4702461 -3.9512677 105 105 108
-2.0037386 -0.47049135 -3.9535334 116 120 128
-1.8160123 -0.46974155 -3.9474351 109 115 122
-1.6274835 -0.46860346 -3.9380732 106 110 114
-1.4425113 -0.4683436 -3.936092 132 136 140
-1.259815 -0.46887067 -3.9407268 118 122 126
-1.0766213 -0.46938056 -3.9452176 87 71 76
-0.89527845 -0.47109818 -3.959863 139 136 144
-0.7534214 -0.49994382 -4.2026024 108 113 116
-0.6604077 -0.59309566 -4.98608 82 87 86
-0.42252904 -0.5869372 -4.934553 81 83 81
-0.1888851 -0.5790577 -4.8685474 122 125 125
0.038789697 -0.5738778 -4.825238 90 89 90
0.2639431 -0.57195884 -4.80935 157 154 150
0.48878416 -0.57137924 -4.804724 129 130 129
0.71416754 -0.5715566 -4.806465 120 122 124
0.9271937 -0.56410277 -4.7440166 117 122 124
1.118995 -0.549097 -4.6180353 127 132 133
1.2913158 -0.530929 -4.46544 128 131 133
1.4579875 -0.5158151 -4.3385205 138 137 136
1.6579895 -0.51473 -4.3296165 137 136 135
1.8752563 -0.51864105 -4.3627477 131 135 137
2.0810633 -0.5189142 -4.365273 121 125 129
2.26684 -0.5145827 -4.3290515 117 120 122
2.4707222 -0.51472384 -4.3304644 120 123 123
2.700851 -0.51988435 -4.374117 125 127 125
-2.1804519 -0.62654907 -3.7732413 88 91 95
-2.0235085 -0.632724 -3.8105035 94 97 99
-1.8567554 -0.63674027 -3.8347654 95 99 102
-1.6862535 -0.64020544 -3.8557081 99 103 109
-1.5140668 -0.64379877 -3.8774235 99 104 113
-1.3375021 -0.6462717 -3.892391 121 127 130
-1.1555797 -0.64654547 -3.894112 106 110 116
-0.9726192 -0.6462527 -3.8924203 131 135 141
-0.79872966 -0.65326965 -3.9347618 135 144 148
-0.6782746 -0.7213751 -4.345108 100 104 108
-0.5254367 -0.798803 -4.8116283 112 117 118
-0.29677606 -0.79081726 -4.763609 117 124 126
-0.07271909 -0.7842198 -4.7239504 117 123 126
0.14834662 -0.78130597 -4.7064834 117 124 127
0.36809582 -0.7790124 -4.6927524 118 123 125
0.5884151 -0.77914065 -4.693611 119 124 125
0.80248934 -0.77314925 -4.657601 119 123 125
0.9960928 -0.7542031 -4.5435367 131 136 137
1.1718351 -0.73078203 -4.402507 131 136 137
1.3479462 -0.7145602 -4.3048487 125 129 131
1.5402961 -0.71003574 -4.2776666 120 124 128
1.7475668 -0.7126232 -4.293336 124 131 134
1.9458832 -0.71139055 -4.285988 121 127 130
2.1311526 -0.70605695 -4.2539287 116 120 124
2.3184643 -0.70224595 -4.231043 110 113 113
2.5553653 -0.71285653 -4.295059 102 103 104
-2.042013 -0.78410196 -3.677173 81 83 87
-1.9005572 -0.79712814 -3.7382646 81 84 88
-1.7487338 -0.8080238 -3.789365 83 85 90
-1.5875204 -0.81656885 -3.8294408 85 89 93
-1.4173187 -0.8220967 -3.855365 79 82 87
-1.2393147 -0.8240704 -3.8646212 93 95 99
-1.0572983 -0.8236143 -3.8624809 102 109 112
-0.8762625 -0.8239137 -3.863884 125 126 133
-0.72126174 -0.8552763 -4.010974 89 94 96
-0.61954314 -0.9944049 -4.6634903 94 97 101
-0.40408584 -1.0033438 -4.7054124 127 131 133
-0.18171416 -0.99611163 -4.6714916 122 129 130
0.0374696 -0.98810685 -4.6339483 121 126 125
0.25440562 -0.984944 -4.6191134 119 123 122
0.4691628 -0.9800835 -4.5963163 123 126 126
0.6787418 -0.9708441 -4.552982 123 128 127
0.87370247 -0.950113 -4.455751 123 128 128
1.0456647 -0.9172098 -4.3014336 127 132 134
1.2141944 -0.89242786 -4.185205 122 127 128
1.4043409 -0.88820815 -4.1654134 124 127 129
1.6017811 -0.8890541 -4.169379 118 121 121
1.8026787 -0.8914116 -4.1804347 114 119 120
1.9753437 -0.8807104 -4.130245 121 124 123
2.1136105 -0.8579572 -4.0235314 112 115 113
2.2951357 -0.85504615 -4.0098777 121 122 120
2.5181339 -0.8668411 -4.0651946 95 96 93
-2.0895069 -0.9392366 -3.6045618 73 77 79
-1.9397343 -0.9488316 -3.6413422 65 72 75
-1.7925653 -0.96169055 -3.6906476 84 91 94
-1.6482639 -0.9790196 -3.7571077 73 79 82
-1.4934121 -0.9935027 -3.8126438 49 52 54
-1.3177397 -0.996211 -3.8229907 59 61 65
-1.1389157 -0.9970332 -3.8260987 79 83 85
-0.9611822 -0.9993178 -3.8348198 70 70 75
-0.78270257 -1.0017284 -3.844023 57 54 56
-0.648798 -1.0798279 -4.1436825 95 100 102
-0.49608782 -1.1803406 -4.529344 105 106 105
-0.28177565 -1.1753191 -4.5100183 171 162 148
-0.06865477 -1.1601322 -4.4516864 166 159 146
0.13948254 -1.1488873 -4.4084816 154 146 133
0.3443641 -1.1402357 -4.375228 152 143 130
0.5435823 -1.1262839 -4.321639 127 121 113
0.7387216 -1.1137487 -4.273486 123 119 115
0.9104117 -1.0787798 -4.139254 150 143 132
1.0590581 -1.0336382 -3.9659917 148 143 134
1.2146697 -1.0077884 -3.866757 120 120 117
1.3799546 -0.995641 -3.8200998 111 114 112
1.542912 -0.9847978 -3.7784479 125 126 124
1.7150395 -0.98143226 -3.7654884 96 101 100
1.8620245 -0.96565306 -3.7049003 95 98 98
1.9808979 -0.9392447 -3.6035314 96 101 100
2.1042814 -0.91896725 -3.5256875 101 106 105
-1.9853517 -1.0978978 -3.5639534 56 59 61
-1.8346404 -1.1082029 -3.597332 89 91 95
-1.691939 -1.1259454 -3.6548512 105 110 113
-1.5537735 -1.1510783 -3.7363575 55 60 61
-1.4075855 -1.1759421 -3.8169866 14 13 19
-1.2385316 -1.1862019 -3.8502104 50 53 55
-1.0543914 -1.1830719 -3.839971 48 47 49
-0.8738951 -1.1836035 -3.841617 22 24 30
-0.6976844 -1.1917636 -3.8680232 60 62 66
-0.5656739 -1.3079722 -4.245111 53 56 58
-0.364274 -1.3031162 -4.229263 81 86 85
-0.16243942 -1.283212 -4.1645775 87 94 95
0.0332982 -1.2623651 -4.0968347 77 84 85
0.22312301 -1.2440164 -4.0372024 77 84 84
0.4056882 -1.2206707 -3.9613557 81 87 88
0.5828723 -1.2009223 -3.897186 84 89 91
0.75214976 -1.1782315 -3.8234715 79 84 85
0.90217286 -1.1399742 -3.6992452 81 83 85
1.0366005 -1.0975894 -3.5616293 74 78 82
1.1840894 -1.0789064 -3.5009308 78 83 86
1.329801 -1.0633634 -3.450424 87 90 92
1.4742312 -1.0502869 -3.4079213 89 92 92
1.6241904 -1.0433228 -3.3852544 102 105 105
1.7742102 -1.0376327 -3.3667223 101 105 103
1.8988725 -1.0192631 -3.3070505 102 105 105
2.044876 -1.0142585 -3.2907448 103 108 107
-2.0589826 -1.25941 -3.540768 58 62 59
-1.9000597 -1.2647518 -3.555691 39 40 40
-1.7471677 -1.2755406 -3.5859263 40 42 45
-1.6060054 -1.2981343 -3.6493456 32 35 39
-1.4678794 -1.3289148 -3.7357757 32 31 34
-1.3256543 -1.3638916 -3.8339972 7 7 12
-1.1591206 -1.3809757 -3.8819177 8 8 11
-0.9721068 -1.3755107 -3.8664522 9 9 14
-0.787977 -1.3725697 -3.858082 12 13 16
-0.61870664 -1.4015653 -3.9394782 44 48 52
-0.43430114 -1.4064962 -3.9532313 69 74 75
-0.24367237 -1.3835778 -3.8887112 75 80 81
-0.058850475 -1.3546373 -3.8072684 72 77 78
0.118189506 -1.3244082 -3.7222092 70 75 76
0.28861228 -1.3004451 -3.654764 71 76 77
0.45266345 -1.2764137 -3.5871303 72 77 78
0.6083548 -1.2482928 -3.5080085 81 86 87
0.7576544 -1.2218823 -3.4336965 90 95 96
0.8911428 -1.1837709 -3.3265088 78 80 84
1.0265194 -1.1591998 -3.2573745 73 78 81
1.1645195 -1.1435975 -3.2134457 65 69 73
1.295795 -1.1257424 -3.16319 74 77 79
1.433998 -1.1169652 -3.1384425 74 77 81
1.585085 -1.1189167 -3.143842 98 101 101
1.712662 -1.1053574 -3.1056607 96 99 99
1.8410921 -1.0944388 -3.0749009 79 80 83
-1.9721597 -1.4239523 -3.529159 49 53 53
-1.8305721 -1.4437454 -3.578101 10 10 13
-1.6779997 -1.458031 -3.6133912 2 3 4
-1.5373136 -1.4870626 -3.6852212 5 8 8
-1.3839363 -1.5096792 -3.7411501 1 2 5
-1.2218257 -1.5280131 -3.7864635 8 7 12
-1.0403141 -1.5242277 -3.7769642 16 16 21
-0.8556168 -1.5132607 -3.7496705 27 30 32
-0.67021924 -1.495027 -3.7043738 42 46 48
-0.48830056 -1.4744353 -3.653238 62 67 66
-0.3115051 -1.4552984 -3.6057093 70 75 76
-0.138711 -1.431299 -3.5461366 66 69 71
0.028212702 -1.394628 -3.4551752 64 67 69
0.18774383 -1.3665998 -3.3856301 60 62 65
0.34131065 -1.3408979 -3.3218524 69 73 75
0.48892045 -1.3153459 -3.2584505 70 75 77
0.62841207 -1.2854184 -3.1842136 96 101 104
0.76169926 -1.2568104 -3.1132495 90 93 95
0.8904078 -1.2311281 -3.049537 72 75 79
1.0230008 -1.2172146 -3.0149786 68 71 74
1.1553354 -1.2064261 -2.9881623 63 66 68
1.2858835 -1.1963191 -2.9630358 70 71 74
1.4310602 -1.2004585 -2.973194 70 71 73
1.571836 -1.2004894 -2.9731765 62 65 65
1.6841418 -1.1805571 -2.9237201 73 73 76
1.8110784 -1.1731203 -2.905211 73 76 78
-1.9666759 -1.5218982 -3.3713942 49 46 45
-1.7916753 -1.5088307 -3.3423293 72 71 69
-1.6494381 -1.5235058 -3.3747168 46 47 49
-1.5048375 -1.5389202 -3.4087396 44 45 48
-1.3432344 -1.5385712 -3.4078465 37 39 41
-1.1787131 -1.5343407 -3.3983567 38 41 41
-1.0167044 -1.5325768 -3.39433 52 55 55
-0.8531007 -1.5273119 -3.3825505 49 53 52
-0.6909559 -1.5228524 -3.372555 57 60 60
-0.52779436 -1.5128238 -3.3502278 60 63 65
-0.36495492 -1.4955325 -3.3118198 60 63 65
-0.20632727 -1.4825219 -3.2828937 61 64 66
-0.04991741 -1.4548262 -3.2214527 71 74 74
0.10061322 -1.4260108 -3.157537 67 70 70
0.24582034 -1.4012475 -3.1025972 56 59 59
0.3868902 -1.3802224 -3.0559382 59 62 62
0.5204967 -1.3512543 -2.991697 72 77 78
0.6525675 -1.3315319 -2.9479282 79 83 85
0.77564484 -1.3036377 -2.886073 65 68 68
0.90381885 -1.2913697 -2.8588138 62 63 59
1.0364802 -1.287863 -2.85095 57 59 57
1.1680932 -1.284003 -2.8423052 62 63 62
1.3055999 -1.2867398 -2.848262 57 59 56
1.4564121 -1.3008366 -2.879363 57 58 57
1.5664607 -1.2792315 -2.8314428 65 66 67
1.6867106 -1.2687013 -2.808037 65 64 63
