ply
format ascii 1.0
element vertex 494
property float x
property float y
property float z
property uchar red
property uchar green
property uchar blue
element face 0
property list uchar int vertex_indices
end_header
8.110668 8.342632 -26.440985 159 166 181
8.763654 8.341192 -25.727512 161 170 182
9.413595 8.33577 -25.00225 161 168 183
10.070503 8.335469 -24.288836 159 166 179
10.730882 8.336613 -23.577139 157 163 178
11.385547 8.332192 -22.850548 159 165 180
12.032234 8.321541 -22.109 160 166 181
12.682621 8.313327 -21.372677 159 165 180
13.340028 8.309268 -20.64449 158 165 179
13.987414 8.298605 -19.90214 161 168 182
14.6348 8.287942 -19.159788 160 167 182
15.296718 8.285196 -18.431683 157 164 179
15.938328 8.271187 -17.682913 154 163 177
16.593578 8.26428 -16.946272 156 162 177
17.244053 8.254781 -16.204985 159 166 181
17.883894 8.240266 -15.456216 159 166 181
18.519117 8.223964 -14.7056875 153 159 176
19.152292 8.207173 -13.955527 152 160 177
19.792486 8.193723 -13.210407 156 163 180
20.424006 8.176958 -12.462146 164 171 187
21.04607 8.156897 -11.711641 172 180 196
21.684168 8.143479 -10.9689245 164 173 189
22.3204 8.129546 -10.2262745 156 165 181
22.940493 8.110063 -9.480099 158 164 181
23.589489 8.101076 -8.742359 155 162 179
24.209858 8.082381 -7.998863 163 169 186
8.4119 7.369125 -26.089233 166 173 186
9.058697 7.3605614 -25.35649 165 172 185
9.714951 7.358927 -24.643173 168 175 187
10.367915 7.3538036 -23.918497 164 171 185
11.017067 7.345465 -23.184177 158 165 178
11.671265 7.3400598 -22.45696 158 165 178
12.323738 7.333059 -21.724785 155 162 175
12.979726 7.327683 -20.995766 157 164 177
13.626894 7.3170238 -20.253666 163 170 183
14.284652 7.3118215 -19.52349 161 168 181
14.932298 7.3011546 -18.780844 160 167 180
15.579945 7.290487 -18.038195 157 164 177
16.23786 7.2844586 -17.304316 157 164 177
16.875238 7.269152 -16.552896 159 166 179
17.527704 7.260495 -15.813652 160 167 182
18.169373 7.247352 -15.066858 166 173 188
18.804232 7.231748 -14.3168745 169 175 190
19.436972 7.215693 -13.567251 178 185 198
20.068754 7.1996555 -12.818725 192 198 211
20.699577 7.1836324 -12.071299 176 183 198
21.329443 7.167626 -11.324974 160 166 183
21.964415 7.153625 -10.581723 164 170 186
22.603119 7.1410146 -9.840396 161 168 185
23.26519 7.135742 -9.105273 160 167 182
23.92119 7.1283426 -8.367596 159 165 180
24.646994 7.1411448 -7.6411133 155 162 177
8.063714 6.3995256 -26.46189 190 195 208
8.716698 6.3949733 -25.743525 184 191 202
9.367198 6.387862 -25.01526 184 192 202
10.020378 6.3820066 -24.290297 183 190 203
10.666587 6.3713627 -23.549297 175 181 194
11.321204 6.3654833 -22.822685 164 170 185
11.970427 6.3561883 -22.085081 168 175 188
12.624323 6.34912 -21.353409 167 174 187
13.280963 6.343011 -20.623512 161 168 181
13.928609 6.3323436 -19.880863 161 168 180
14.565449 6.3169513 -19.126577 157 164 176
15.222229 6.3103094 -18.393923 159 166 178
15.871549 6.3003416 -17.652918 165 172 184
16.522686 6.2910147 -16.913118 165 172 184
17.166842 6.279007 -16.16762 163 169 184
17.814487 6.2683396 -15.424973 157 164 178
18.462135 6.2576723 -14.6823225 160 166 181
19.105663 6.2456465 -13.937409 166 173 188
19.728144 6.2270136 -13.182545 161 167 182
20.35971 6.2117085 -12.434304 158 165 179
21.005919 6.201065 -11.693307 156 162 177
21.643726 6.1879983 -10.949385 156 163 179
22.272913 6.1726685 -10.203566 158 164 179
22.918985 6.1622005 -9.46357 157 163 178
23.57823 6.1551914 -8.72649 156 162 179
24.292355 6.162026 -7.998751 154 160 176
8.372709 5.4259906 -26.128874 194 199 210
9.018917 5.415347 -25.387875 189 197 207
9.666226 5.405324 -24.649288 185 192 203
10.283912 5.379583 -23.851507 169 176 189
10.957542 5.383416 -23.164877 164 171 183
11.621002 5.3808355 -22.452082 163 170 183
12.268168 5.370176 -21.709982 163 170 183
12.92492 5.3635325 -20.980885 156 163 175
13.574697 5.3537135 -20.240871 155 162 175
14.220213 5.342198 -19.495588 154 161 174
14.856837 5.327538 -18.741587 155 162 175
15.514283 5.32044 -18.009142 158 165 177
16.163153 5.310196 -17.267641 155 162 175
16.810799 5.2995286 -16.524992 154 161 174
17.458447 5.2888613 -15.782343 154 161 174
18.106092 5.278194 -15.039696 155 162 174
18.753738 5.2675266 -14.297047 158 165 179
19.387007 5.2529225 -13.546893 166 171 184
20.019316 5.238334 -12.797838 160 167 182
20.650667 5.2237616 -12.049883 160 167 181
21.296875 5.213118 -11.308886 159 166 181
21.92803 5.198867 -10.562983 162 168 183
22.581333 5.1899815 -9.824628 161 168 183
23.252754 5.1850767 -9.090094 161 168 183
23.911268 5.177014 -8.350983 157 164 180
24.768387 5.2110443 -7.6449156 156 163 179
8.035353 4.458726 -26.536797 186 193 205
8.6798525 4.4464293 -25.78606 180 187 200
9.330646 4.4373918 -25.0515 179 188 200
9.947351 4.4128385 -24.244215 183 190 202
10.631545 4.418414 -23.57681 183 190 201
11.273585 4.40539 -22.823555 172 179 192
11.905012 4.3886704 -22.055561 154 163 175
12.559556 4.380764 -21.324991 153 160 173
13.209799 4.3711343 -20.586882 149 156 169
13.854262 4.3595634 -19.841232 147 154 167
14.501058 4.348786 -19.098694 147 154 166
15.130515 4.3329906 -18.339155 142 149 161
15.771956 4.3209643 -17.59346 146 151 164
16.429436 4.3133183 -16.861671 149 154 167
17.077051 4.302912 -16.120878 152 157 170
17.746422 4.2978263 -15.394623 158 162 175
18.397696 4.288049 -14.654419 158 165 178
19.031227 4.27417 -13.904001 164 169 183
19.678394 4.26351 -13.161902 168 173 186
20.295416 4.246459 -12.406463 169 174 187
20.941624 4.2358155 -11.665464 167 174 189
21.586578 4.224923 -10.924028 166 173 188
22.201017 4.208183 -10.173422 167 173 188
22.844275 4.197185 -9.433 166 173 188
23.500555 4.188561 -8.695652 166 173 187
24.17066 4.182246 -7.9600906 173 178 191
7.115639 2.9564726 -22.85341 121 123 127
8.04315 3.0935705 -23.132175 94 99 97
9.560144 3.424652 -24.529396 211 216 223
9.586142 3.2041972 -22.561281 205 211 216
10.9264765 3.4287589 -23.197067 190 198 206
11.565092 3.4152143 -22.438118 177 185 197
12.202638 3.4016876 -21.680395 178 185 197
12.843068 3.389238 -20.92928 171 178 190
13.488096 3.3781416 -20.185469 163 171 181
14.134784 3.3674905 -19.44392 159 166 177
14.770496 3.3543046 -18.691038 160 165 179
15.393796 3.338608 -17.928473 180 185 196
16.038673 3.3279014 -17.188253 199 204 215
16.684175 3.3173285 -16.44858 176 183 194
17.35524 3.3117125 -15.726975 166 171 182
18.01314 3.3032506 -14.993487 159 166 179
18.675016 3.2953386 -14.260858 191 196 210
19.336065 3.2870831 -13.526034 183 189 204
19.941845 3.2694361 -12.763828 187 194 207
20.571083 3.2560484 -12.015656 185 192 207
21.228516 3.2472355 -11.279539 181 188 201
21.818558 3.2281523 -10.52045 188 195 208
22.315054 3.195964 -9.739605 217 223 232
19.407389 2.6840641 -8.142366 123 125 122
19.955606 2.6760888 -7.523021 163 159 153
20.431997 2.6585062 -6.8909807 149 156 158
6.8517 2.1319845 -23.275806 150 151 151
7.408985 2.1229017 -22.63793 160 159 158
8.000604 2.1231537 -22.079746 167 167 166
8.576626 2.118149 -21.473143 135 136 137
10.383854 2.4043386 -23.200577 220 221 224
11.217201 2.4375565 -22.809547 224 226 229
11.839232 2.4214225 -22.025454 233 234 235
12.485892 2.4107656 -21.283861 240 241 242
13.105908 2.395123 -20.50759 205 207 210
13.7591915 2.385897 -19.77693 197 201 206
14.404764 2.3752315 -19.03627 192 197 207
15.033576 2.361871 -18.279099 177 183 192
15.672651 2.3503344 -17.534126 191 197 207
16.317421 2.3397143 -16.794775 193 199 208
16.949564 2.3273168 -16.046026 189 195 206
17.633179 2.322014 -15.333772 185 191 202
18.278908 2.3113782 -14.593321 185 192 204
18.95277 2.3042502 -13.86837 162 170 185
19.597925 2.2934148 -13.126061 194 202 215
20.18983 2.2764325 -12.360349 208 215 228
20.790031 2.260824 -11.60328 216 222 231
18.517906 1.9360663 -9.853019 75 68 67
18.877342 1.9064313 -9.155661 98 92 83
19.35059 1.8896017 -8.504338 188 189 187
19.761343 1.8671765 -7.845002 172 170 165
20.163765 1.844803 -7.194193 198 197 190
5.5056653 0.9796896 -18.568312 35 27 20
7.663465 1.2719795 -22.315647 73 72 74
8.291575 1.2741827 -21.833553 177 182 189
8.877987 1.268565 -21.237814 156 157 159
9.784586 1.3071548 -21.213984 89 84 87
11.266753 1.4150133 -22.024681 42 46 49
12.0865965 1.4273542 -21.575052 190 191 200
12.749693 1.418913 -20.861769 142 137 144
13.384909 1.4071791 -20.109243 162 163 170
14.02114 1.395667 -19.360086 171 169 170
14.654638 1.3839765 -18.60982 193 189 191
15.31819 1.3752064 -17.889912 228 226 230
15.935335 1.3621216 -17.126825 238 238 238
16.566767 1.3504792 -16.3792 211 215 220
17.246986 1.342898 -15.667947 242 243 244
17.850113 1.3290571 -14.902202 237 238 239
17.993822 1.2812423 -13.874896 207 211 218
16.404882 1.1126199 -12.000068 88 89 92
17.005465 1.1069133 -11.3908205 115 116 117
17.599222 1.1004933 -10.773727 150 146 145
18.136347 1.0902759 -10.131801 159 159 157
18.645298 1.0784185 -9.482255 124 118 112
19.11677 1.0645555 -8.825905 167 166 162
19.45268 1.0433413 -8.143113 155 164 175
19.85997 1.0268875 -7.491129 107 104 98
20.242403 1.0096354 -6.8447275 165 170 171
5.2039757 0.32139274 -18.620325 17 13 5
6.8402324 0.39480415 -21.277996 84 87 86
7.999592 0.42517957 -22.183477 175 174 173
8.5034275 0.41259706 -21.412203 59 63 64
9.485609 0.42502978 -21.57844 177 178 181
10.137278 0.41852137 -21.02205 139 140 142
10.185517 0.38513443 -19.494347 46 41 41
10.781545 0.3773995 -18.904947 60 57 59
11.350162 0.36842197 -18.270454 64 64 69
11.865758 0.35753807 -17.571184 64 67 64
12.399281 0.34745967 -16.901089 36 33 33
12.95261 0.3381027 -16.25561 37 26 23
13.495952 0.32847756 -15.602032 43 16 16
13.972939 0.31710964 -14.896442 76 29 30
14.480406 0.30678397 -14.22566 67 48 47
14.919992 0.29498205 -13.515524 119 117 116
15.469074 0.28596085 -12.88692 113 110 110
16.003576 0.2766302 -12.25021 117 115 117
16.543575 0.2674437 -11.617796 36 43 46
17.070684 0.25803468 -10.98052 97 96 96
17.097507 0.23985709 -10.148531 26 21 29
17.378853 0.22696944 -9.453051 35 37 44
17.68168 0.21489957 -8.785865 88 90 97
17.816332 0.20075671 -8.092739 219 227 234
18.250437 0.19142105 -7.4962153 32 30 33
18.564085 0.18063174 -6.8825254 82 90 99
5.439285 -0.33346167 -18.485193 44 41 27
6.0059543 -0.3469992 -18.328981 39 37 15
6.4922466 -0.35633096 -17.92658 0 0 1
6.850644 -0.35994673 -17.247057 0 0 0
7.1434827 -0.3610985 -16.480194 51 53 56
8.148286 -0.3913821 -16.940434 1 4 6
9.767149 -0.44418052 -18.152477 66 62 54
10.219924 -0.4501171 -17.454704 62 59 34
10.790112 -0.46053025 -16.920828 94 90 64
11.257127 -0.4671418 -16.258432 115 118 118
11.769284 -0.475432 -15.654069 104 108 108
11.916235 -0.4712109 -14.705794 108 111 111
12.226347 -0.47300506 -13.96114 131 135 132
13.98161 -0.5226094 -14.377992 34 27 27
13.427298 -0.49608925 -12.971876 152 141 133
14.831291 -0.53293836 -12.97325 110 98 79
15.203056 -0.5366392 -12.262539 74 74 75
15.537519 -0.53935844 -11.551482 87 85 87
15.681509 -0.5365018 -10.772532 77 68 70
15.835336 -0.5342682 -10.036425 1 0 2
16.016317 -0.53312415 -9.344596 63 53 37
15.895009 -0.5234577 -8.583367 56 47 25
15.766589 -0.5140296 -7.8720326 94 84 63
15.595 -0.5037896 -7.1983495 112 101 80
15.474534 -0.49538392 -6.5825567 45 35 15
15.711633 -0.4972139 -6.067027 69 58 41
3.820599 -0.74031496 -14.674513 81 68 35
4.239652 -0.7623774 -14.580065 72 57 23
4.6912394 -0.7873027 -14.50757 92 77 47
5.276521 -0.8292789 -14.659914 114 100 76
5.968496 -0.8818515 -14.91501 105 92 71
6.498087 -0.9085372 -14.7651825 187 180 165
7.17137 -0.95100206 -14.792147 171 166 162
7.735268 -0.9772823 -14.578261 131 132 131
8.251517 -0.99649316 -14.258973 115 118 118
8.751512 -1.0129294 -13.894483 114 117 117
9.075569 -1.010285 -13.31962 108 111 111
9.278189 -0.99613196 -12.641864 120 124 121
9.389629 -0.97458595 -11.918636 119 124 125
9.439342 -0.9491114 -11.1920395 116 121 122
9.465896 -0.9235452 -10.499374 122 124 126
9.472622 -0.8981484 -9.842082 136 139 139
9.493822 -0.8758023 -9.239806 145 146 147
9.452315 -0.8497988 -8.6426 77 79 77
11.266657 -0.9757038 -9.007417 184 175 165
13.275787 -1.1108074 -9.301418 85 76 58
13.125145 -1.0733975 -8.584654 101 92 70
12.91278 -1.033459 -7.900162 116 104 87
12.723352 -0.9973384 -7.2769775 76 77 77
12.539769 -0.96351534 -6.7031474 105 106 105
12.385547 -0.93345886 -6.179257 90 93 91
12.233064 -0.90500367 -5.69342 88 92 89
3.258058 -1.0186474 -12.528264 130 127 123
3.6138666 -1.0487877 -12.466545 133 136 136
4.0290294 -1.0906701 -12.49029 122 124 126
4.48333 -1.137399 -12.52908 119 122 122
4.9256372 -1.1766963 -12.478452 125 128 129
5.351331 -1.2088095 -12.348316 117 120 120
5.763117 -1.2354019 -12.15866 128 131 131
6.1421566 -1.2536427 -11.895131 143 144 145
6.4680614 -1.2609032 -11.548412 116 118 120
6.747266 -1.2597259 -11.145872 119 122 122
6.96706 -1.2489703 -10.688808 126 129 129
7.1376724 -1.2314006 -10.20251 117 120 120
7.245738 -1.205646 -9.68589 125 128 129
7.3366766 -1.1794422 -9.186527 133 134 135
7.479914 -1.1629969 -8.754087 132 133 134
7.641387 -1.1505048 -8.352833 137 138 139
7.8483944 -1.1453401 -7.9931726 123 124 122
7.983113 -1.1311005 -7.6039577 159 154 149
9.033418 -1.2367133 -7.6591206 204 191 178
9.353241 -1.2445908 -7.3296037 212 195 182
10.006217 -1.2932122 -7.1208963 84 84 82
10.063181 -1.2682879 -6.6867223 94 97 95
10.079131 -1.2400752 -6.2623143 98 101 99
10.056871 -1.2091136 -5.8514905 91 92 91
9.990333 -1.1749021 -5.455491 107 109 105
10.114877 -1.1632115 -5.116688 96 99 97
2.6592188 -1.2165772 -11.328204 119 122 122
2.9531858 -1.2486514 -11.260576 125 128 128
3.2653058 -1.2835917 -11.197534 118 121 121
3.5953953 -1.3208222 -11.133619 125 126 126
3.9251068 -1.3539662 -11.029762 111 112 112
4.2427554 -1.380131 -10.872646 110 113 113
4.5340543 -1.3962601 -10.65074 113 116 116
4.812279 -1.4075613 -10.398181 126 129 129
5.075195 -1.4141315 -10.11886 105 109 109
5.3065267 -1.4124852 -9.799603 121 124 126
5.5083103 -1.4041635 -9.452992 115 118 118
5.6936374 -1.3930207 -9.1000185 126 129 129
5.836566 -1.3735676 -8.720344 133 137 136
5.9776006 -1.3554476 -8.356341 143 144 143
6.1403956 -1.3434223 -8.024142 108 109 108
6.327312 -1.337329 -7.7190514 114 118 115
6.523548 -1.3337003 -7.426142 109 112 112
6.7360005 -1.3335952 -7.1468606 77 73 71
7.2569723 -1.3900152 -7.0228324 210 197 187
7.5041466 -1.3948663 -6.7471185 217 205 195
7.6930785 -1.3896465 -6.448032 204 193 180
7.9079967 -1.3892803 -6.1629367 64 56 47
7.995891 -1.3684466 -5.841677 80 70 51
8.020087 -1.3387719 -5.5163603 90 81 60
7.9827785 -1.3012441 -5.1938887 65 57 40
7.8315134 -1.2484932 -4.8700304 222 224 230
2.455061 -1.393514 -10.344594 119 122 122
2.6997297 -1.419875 -10.233074 117 120 118
2.954856 -1.4480224 -10.121778 117 118 119
3.2197225 -1.4773302 -10.006886 130 131 131
3.4709105 -1.4979919 -9.843933 128 129 129
3.7082565 -1.5113876 -9.6435795 118 121 121
3.9296703 -1.5178891 -9.411296 119 122 122
4.139009 -1.5198681 -9.1601305 119 122 122
4.331088 -1.5162258 -8.888356 129 132 132
4.512224 -1.5097233 -8.608846 126 127 127
4.701247 -1.506476 -8.343946 132 133 131
4.868605 -1.4974124 -8.062565 138 139 138
5.027937 -1.4870489 -7.7815495 150 151 149
5.1814203 -1.4761155 -7.503653 131 131 129
5.3682003 -1.4749249 -7.2571745 135 139 138
5.549656 -1.4726968 -7.009612 88 89 86
5.755164 -1.476724 -6.7788215 77 77 73
5.939378 -1.4756588 -6.5365543 195 183 174
6.1191845 -1.4738493 -6.294256 206 198 193
6.2765837 -1.4673434 -6.0448985 191 181 177
6.4137306 -1.4570085 -5.792301 183 173 166
6.528214 -1.4426483 -5.5380516 85 76 61
6.542627 -1.4087029 -5.2627735 73 65 47
6.5540595 -1.3760879 -5.0013566 70 60 43
6.562242 -1.3446374 -4.752886 107 100 79
6.6222095 -1.3247126 -4.525823 95 85 66
2.0483553 -1.4885365 -9.569852 123 125 123
2.2544029 -1.5121522 -9.457451 138 142 139
2.4621284 -1.5338616 -9.331278 112 115 115
2.6650891 -1.5504857 -9.179898 109 112 112
2.8630764 -1.5628577 -9.008678 124 127 127
3.053005 -1.5702033 -8.816723 131 134 134
3.2424722 -1.5768651 -8.621153 124 127 127
3.42232 -1.5789174 -8.409351 146 149 149
3.5930252 -1.5772303 -8.186048 144 146 144
3.7591357 -1.5741358 -7.959855 155 156 155
3.9294853 -1.5731933 -7.741557 142 143 142
4.0990553 -1.5722919 -7.524483 138 139 138
4.2610216 -1.5690243 -7.3024006 141 142 141
4.4151335 -1.5635749 -7.076754 111 112 111
4.579803 -1.5621823 -6.862786 110 112 110
4.720542 -1.5535694 -6.6344447 113 110 108
4.840901 -1.5395478 -6.398397 69 69 64
4.9159603 -1.5133201 -6.1440954 122 114 99
5.043807 -1.5039498 -5.927199 133 125 115
5.1789804 -1.4973427 -5.718088 163 149 140
5.3025007 -1.4881681 -5.5077868 199 190 180
5.430078 -1.4807292 -5.3030577 192 182 172
5.515009 -1.4630629 -5.0888834 71 64 49
5.5295386 -1.4291524 -4.8630376 93 85 65
5.556679 -1.4001665 -4.6516237 75 65 47
5.5722437 -1.3700674 -4.447834 56 48 28
1.8981372 -1.5740365 -8.8240595 114 117 117
2.063974 -1.5844764 -8.673529 118 121 121
2.2279053 -1.5925494 -8.513176 107 110 110
2.390734 -1.5992227 -8.346983 122 123 123
2.5461931 -1.6009946 -8.164666 131 133 131
2.7046335 -1.6045432 -7.987811 140 142 140
2.8640242 -1.6084987 -7.8118796 141 144 142
3.0209575 -1.6110667 -7.6318393 92 93 94
3.1688743 -1.6092654 -7.440438 162 163 161
3.3244166 -1.6113901 -7.25983 132 133 132
3.4738455 -1.6108459 -7.073029 156 157 156
3.6236765 -1.6107293 -6.8879323 125 126 125
3.7707965 -1.6097186 -6.701576 68 69 68
3.9114883 -1.6064551 -6.5115523 139 140 139
4.04434 -1.6006485 -6.318108 93 95 92
4.1523185 -1.5863447 -6.1116033 65 65 62
4.1396933 -1.5306233 -5.840658 177 166 154
4.2350373 -1.5155362 -5.6456833 198 188 174
4.347414 -1.5071774 -5.4643292 180 170 158
4.4614367 -1.499997 -5.287006 204 193 180
4.5648766 -1.4900814 -5.1086526 182 170 161
4.6677814 -1.4807 -4.933703 203 193 185
4.7393064 -1.4627322 -4.7532487 98 90 76
4.7878327 -1.4392622 -4.5728226 59 53 43
4.824972 -1.4139501 -4.396948 77 70 47
4.868202 -1.3916801 -4.229215 82 76 57
1.6027952 -1.6086462 -8.280968 116 120 118
1.7387668 -1.6097506 -8.120025 117 120 120
1.8774567 -1.6132375 -7.9663157 121 123 121
2.016203 -1.6166055 -7.812011 117 118 117
2.1520665 -1.6177752 -7.6514883 131 132 131
2.2893462 -1.6200256 -7.494024 131 132 131
2.4289742 -1.623773 -7.340324 136 137 136
2.5686584 -1.6274006 -7.1860247 124 126 123
2.7036026 -1.6281719 -7.0248594 130 131 128
2.841179 -1.6305239 -6.867483 136 137 136
2.9784312 -1.6326987 -6.709717 99 100 99
3.113364 -1.6337185 -6.549666 99 102 100
3.2494307 -1.6353842 -6.391092 130 131 128
3.3790424 -1.6341137 -6.2273884 76 73 71
3.4996781 -1.6291132 -6.058118 102 101 99
3.5837302 -1.6089431 -5.866295 78 75 73
3.5158823 -1.5274208 -5.5880704 191 180 169
3.625709 -1.5225973 -5.432765 145 134 127
3.7311404 -1.5165151 -5.277248 207 196 184
3.8353274 -1.5104728 -5.1234236 198 187 175
3.9334579 -1.5027122 -4.9693794 197 186 177
4.027466 -1.494065 -4.816436 194 182 173
4.11895 -1.4851531 -4.665399 188 180 174
4.1961374 -1.4720613 -4.513289 27 20 13
4.254016 -1.4534882 -4.3604603 97 90 79
4.30723 -1.4344969 -4.2114673 110 102 85
1.4669169 -1.6128145 -7.6390533 112 113 112
1.5894722 -1.6161063 -7.503468 132 133 132
1.7127771 -1.619892 -7.368897 131 133 131
1.835153 -1.6226681 -7.231526 127 128 125
1.9586114 -1.6262057 -7.0958023 137 139 137
2.0823154 -1.629752 -6.959817 128 128 125
2.2062676 -1.6333083 -6.8235693 106 107 104
2.3292983 -1.6360909 -6.685431 119 120 117
2.4524448 -1.6388727 -6.5471497 128 132 128
2.5739913 -1.6406116 -6.40675 188 189 182
2.696434 -1.6428949 -6.2673826 131 133 129
2.8163586 -1.6437525 -6.1255226 111 113 111
2.9310973 -1.6419287 -5.9795194 69 69 64
3.038146 -1.6364436 -5.828596 154 148 143
3.0994 -1.6088241 -5.647085 156 150 144
3.0551991 -1.5329126 -5.405551 212 202 190
3.1502366 -1.5265774 -5.2658644 198 186 177
3.244988 -1.5206536 -5.1281247 205 194 183
3.340373 -1.5154977 -4.992602 191 181 167
3.4369576 -1.5112741 -4.8592505 154 142 133
3.5331886 -1.5072671 -4.727169 214 203 192
3.624139 -1.5015119 -4.5946846 154 142 134
3.7185419 -1.497504 -4.4648128 193 184 179
3.805742 -1.4911228 -4.3344374 192 182 176
3.8778343 -1.4796818 -4.202686 70 72 68
3.9386408 -1.4649212 -4.0716968 79 79 78
1.2388686 -1.5995203 -7.219521 115 116 115
1.3534762 -1.6093109 -7.1154633 126 128 125
1.4661053 -1.6158876 -7.00266 116 117 115
1.577187 -1.6203176 -6.884286 135 136 135
1.6894407 -1.6254869 -6.767062 121 122 119
1.8012359 -1.6298658 -6.647653 123 125 121
1.9132578 -1.6341426 -6.5276184 128 129 128
2.025687 -1.6384734 -6.4072804 154 156 153
2.1363244 -1.6412427 -6.2836933 96 98 96
2.247039 -1.643975 -6.1598835 123 126 122
2.357786 -1.646645 -6.0358195 108 111 108
2.4638555 -1.6462609 -5.906813 114 115 113
2.5671272 -1.6443473 -5.7758784 137 132 124
2.6592648 -1.6361921 -5.6367354 133 129 121
2.6287236 -1.559512 -5.4080143 168 160 152
2.693035 -1.5401468 -5.2635546 204 194 182
2.771778 -1.5298327 -5.133061 171 160 149
2.8622084 -1.5262578 -5.0118313 190 180 171
2.9501395 -1.5217961 -4.89054 206 196 184
3.0374947 -1.517445 -4.7703247 174 163 150
3.1271288 -1.5145096 -4.6522675 199 188 174
3.215361 -1.511216 -4.5346584 191 180 167
3.3042693 -1.508498 -4.4182267 196 183 169
3.3956747 -1.507076 -4.3032775 210 199 184
3.486557 -1.5056026 -4.1887803 196 185 172
3.5576286 -1.496355 -4.0712132 65 68 68
