ply
format ascii 1.0
element vertex 494
property float x
property float y
property float z
property uchar red
property uchar green
property uchar blue
element face 0
property list uchar int vertex_indices
end_header
-0.26819158 -0.043353803 -0.51107407 165 145 127
-0.24779804 -0.043692272 -0.51388025 179 159 140
-0.22843586 -0.04427254 -0.51960313 191 170 150
-0.20996618 -0.045145445 -0.5288351 198 176 156
-0.19199018 -0.04632512 -0.5417199 200 181 160
-0.17336494 -0.0476333 -0.5560849 196 180 162
-0.16358204 -0.05208397 -0.60808915 177 165 146
-0.13903937 -0.052730415 -0.61429095 183 169 149
-0.1136978 -0.053260624 -0.61907274 175 163 144
-0.08721184 -0.05335628 -0.6186544 174 159 143
-0.048447486 -0.042747263 -0.49106264 186 176 158
-0.026412165 -0.041184787 -0.47131646 183 173 155
-0.006276818 -0.041262787 -0.4710608 185 175 158
0.01384344 -0.041338567 -0.4707799 180 170 154
0.033874106 -0.041330803 -0.46951708 176 166 149
0.053726595 -0.04126623 -0.46759367 172 160 145
0.07330996 -0.04114124 -0.4649723 170 159 144
0.09273387 -0.041039586 -0.4626357 163 153 138
0.11209931 -0.04098388 -0.46084562 161 150 136
0.13154028 -0.040993504 -0.4598228 160 150 135
0.1513769 -0.04112649 -0.4602342 160 149 136
0.17171027 -0.041364446 -0.4618565 153 142 129
0.19238816 -0.041644145 -0.46395177 151 142 128
0.21266769 -0.041814238 -0.46477538 150 140 125
0.23293997 -0.04196988 -0.46542898 144 133 121
0.25051105 -0.041684125 -0.4610262 147 137 123
-0.26017922 -0.06331424 -0.5061844 198 176 151
-0.24038543 -0.063997276 -0.51083696 200 177 154
-0.2212041 -0.064978234 -0.51789796 202 179 156
-0.20271547 -0.06638581 -0.52840066 199 178 158
-0.18465544 -0.06829002 -0.54289377 54 48 44
-0.16582659 -0.07041111 -0.5590907 170 156 140
-0.15583357 -0.07758071 -0.6160392 149 133 115
-0.12765646 -0.07690966 -0.6095149 175 157 138
-0.10068482 -0.07672387 -0.60692215 164 148 131
-0.07217741 -0.074733645 -0.5898304 148 133 117
-0.036565274 -0.058870368 -0.46145993 180 168 151
-0.016463058 -0.059001464 -0.46168426 174 162 145
0.0036633506 -0.05909354 -0.46159527 172 161 146
0.023766287 -0.05913109 -0.4610711 168 157 142
0.043872096 -0.05922104 -0.46096602 166 155 140
0.06397875 -0.059313025 -0.4608771 162 151 136
0.08392836 -0.05929815 -0.4599398 157 146 133
0.103881195 -0.059325617 -0.4593412 154 143 130
0.12395386 -0.059429083 -0.45934558 151 140 127
0.14408712 -0.059553575 -0.4595157 149 138 124
0.16441944 -0.05974028 -0.46017534 142 132 118
0.18477628 -0.059914384 -0.46073323 143 132 121
0.20518245 -0.060086682 -0.46127462 133 124 112
0.22584939 -0.06031252 -0.46223372 131 120 109
0.24734843 -0.060715266 -0.46457392 124 113 102
0.26980177 -0.06128268 -0.46819225 122 113 101
-0.27505964 -0.083847195 -0.5027592 5 2 2
-0.25554532 -0.08487104 -0.5082684 4 3 2
-0.23593569 -0.086042546 -0.51465845 4 2 2
-0.2162082 -0.08740033 -0.5221601 36 25 22
-0.1969805 -0.08928847 -0.5328529 200 177 156
-0.17781669 -0.09170427 -0.54670686 194 173 151
-0.17165099 -0.10256171 -0.61151487 108 99 85
-0.14159301 -0.10066959 -0.5992305 128 114 98
-0.113916405 -0.09990346 -0.59376323 173 156 139
-0.08513943 -0.0973378 -0.5774871 125 113 98
-0.04776903 -0.07827999 -0.46219796 174 162 145
-0.02712467 -0.07813644 -0.46068192 170 158 142
-0.00661097 -0.07804137 -0.45946014 169 157 142
0.013839516 -0.078140154 -0.4594011 165 152 137
0.0342904 -0.07823372 -0.45931068 162 152 136
0.05477213 -0.078369804 -0.45947394 157 147 131
0.075261675 -0.07849101 -0.45954776 154 143 130
0.095803574 -0.0786423 -0.45980015 151 140 127
0.11622839 -0.078696474 -0.45947483 149 138 125
0.13672407 -0.078802094 -0.45945522 144 133 120
0.157186 -0.07888813 -0.45931953 139 128 117
0.17773359 -0.07901307 -0.4594138 136 125 113
0.19838378 -0.07917158 -0.45970595 134 123 111
0.21922457 -0.079385564 -0.4603242 130 119 108
0.24043187 -0.07969801 -0.46152017 122 111 100
0.2623259 -0.08018178 -0.46372005 114 105 93
-0.26746398 -0.104961015 -0.498667 200 173 149
-0.24843355 -0.10658903 -0.5058911 199 174 148
-0.22845244 -0.10808661 -0.5124718 201 176 152
-0.20953226 -0.11045901 -0.52322924 201 176 151
-0.19051814 -0.113363616 -0.5365084 198 172 149
-0.17121267 -0.116902 -0.5527857 185 160 135
-0.14468116 -0.115880504 -0.5472481 176 157 137
-0.12149708 -0.117607154 -0.5548317 137 120 103
-0.09425933 -0.11524555 -0.54291975 154 142 124
-0.06888917 -0.11419627 -0.5372808 116 105 90
-0.038089067 -0.097734325 -0.4584022 166 153 138
-0.017256932 -0.09782364 -0.45828167 163 151 136
0.0035709229 -0.09787716 -0.4579915 160 147 133
0.024395136 -0.097985305 -0.45796055 155 145 130
0.04525775 -0.09816201 -0.45825374 153 142 127
0.066142775 -0.098320596 -0.4584604 154 143 129
0.08695171 -0.0983655 -0.4581299 147 136 122
0.10789944 -0.09855336 -0.4584738 145 134 120
0.12877758 -0.098659515 -0.45843196 141 130 117
0.14957516 -0.09871073 -0.45813167 138 127 114
0.17043813 -0.09880976 -0.45805645 132 122 108
0.19132349 -0.098919325 -0.4580306 130 119 108
0.21221851 -0.09903056 -0.4580125 126 115 103
0.23391673 -0.099473976 -0.45954868 121 110 99
0.25627536 -0.100114144 -0.46200088 115 104 93
0.27870217 -0.10069715 -0.46418017 112 101 90
-0.27786747 -0.124432966 -0.48629653 22 16 13
-0.26208788 -0.12780423 -0.4990845 13 8 5
-0.2429905 -0.13005422 -0.50742865 96 79 68
-0.21831287 -0.1294831 -0.50465363 161 140 121
-0.18846294 -0.12532958 -0.48780164 170 149 127
-0.15958653 -0.120730355 -0.4692343 167 150 133
-0.13891508 -0.12178341 -0.4728785 138 121 106
-0.120857805 -0.12591355 -0.48857334 140 125 110
-0.09927406 -0.12741299 -0.493937 162 149 133
-0.07598925 -0.12691885 -0.49149305 162 148 132
-0.050096594 -0.11962027 -0.46247166 160 147 131
-0.028349992 -0.11854237 -0.45778683 159 147 132
-0.0070882314 -0.11857723 -0.4574496 155 142 128
0.014151812 -0.11861929 -0.45714092 153 141 126
0.03542559 -0.11883411 -0.4575048 150 138 123
0.056688964 -0.118941285 -0.45744938 146 133 119
0.07802721 -0.1191545 -0.45780554 141 130 117
0.09931451 -0.119258925 -0.45773894 139 128 114
0.120653786 -0.119411215 -0.4578576 137 126 113
0.1417942 -0.1193831 -0.45727766 133 122 109
0.1629083 -0.11936843 -0.4567507 127 117 103
0.18404557 -0.119394034 -0.4563802 125 114 101
0.20538372 -0.11954918 -0.45651 120 109 98
0.2272982 -0.11999266 -0.45775083 116 104 93
0.24965104 -0.12058579 -0.4595651 113 102 90
0.27209923 -0.12114347 -0.46123913 108 97 86
-0.25983113 -0.14068232 -0.46335787 176 145 120
-0.23771356 -0.14068337 -0.46293107 178 149 124
-0.21497121 -0.14025871 -0.46109343 174 145 120
-0.1927342 -0.14007908 -0.46007064 170 144 118
-0.17078274 -0.14006032 -0.45958203 158 137 117
-0.14982714 -0.14093976 -0.46206388 154 138 120
-0.12798512 -0.14111495 -0.46221462 150 136 120
-0.10569167 -0.14072101 -0.4604866 148 134 118
-0.08359475 -0.14039609 -0.45898923 150 135 121
-0.061776325 -0.14040278 -0.4585868 148 135 120
-0.03996282 -0.140323 -0.45790035 146 133 118
-0.0181838 -0.14006788 -0.4566384 145 132 117
0.0034969759 -0.14020047 -0.45665237 141 129 114
0.0251727 -0.14025113 -0.45639715 143 130 115
0.046910804 -0.1405265 -0.45687914 136 124 109
0.068629146 -0.14065284 -0.45687172 136 123 111
0.0903772 -0.14081158 -0.45697024 134 121 108
0.112098396 -0.1409145 -0.4568859 130 117 104
0.13374503 -0.14093912 -0.45654568 129 116 104
0.15529126 -0.14089485 -0.4559811 124 111 98
0.17678818 -0.14084674 -0.4554049 119 108 95
0.19855678 -0.14102036 -0.45555186 118 107 94
0.22052236 -0.14130375 -0.45605573 112 101 90
0.24297547 -0.14183491 -0.45736417 109 98 86
0.26662046 -0.14292565 -0.46048796 103 92 81
0.28973332 -0.14360757 -0.46227896 100 89 78
-0.27467895 -0.1622232 -0.4593947 171 142 116
-0.2527449 -0.16252889 -0.45987725 174 145 119
-0.22915885 -0.16171412 -0.45716885 161 135 109
-0.20743807 -0.16215277 -0.4580304 165 139 113
-0.1856282 -0.16259547 -0.45890185 155 133 113
-0.16378573 -0.16309975 -0.45994657 147 128 112
-0.14113562 -0.16280262 -0.45871532 146 130 112
-0.11880965 -0.16279809 -0.45831555 142 128 112
-0.09653639 -0.16283302 -0.45802808 142 127 113
-0.07423721 -0.1627702 -0.45746422 140 126 112
-0.05198477 -0.16271167 -0.4569133 139 127 112
-0.02975286 -0.16252111 -0.45599017 138 125 111
-0.0076114433 -0.16258046 -0.45577386 132 120 105
0.014525558 -0.16271363 -0.45576602 133 120 107
0.03669498 -0.16294797 -0.45604318 131 118 105
0.058889005 -0.16315043 -0.45622993 127 114 102
0.08109197 -0.1633159 -0.4563121 125 114 101
0.10322122 -0.16333984 -0.45599607 123 110 98
0.1253858 -0.1634361 -0.4558836 121 108 95
0.14741758 -0.16338903 -0.45536888 117 104 92
0.16946112 -0.16339158 -0.45499396 116 104 92
0.19159748 -0.16349474 -0.45490143 108 95 85
0.21383168 -0.16367136 -0.45501453 108 95 83
0.23634645 -0.16402611 -0.45562553 104 92 81
0.25950816 -0.16474313 -0.4572478 103 90 79
0.28286546 -0.16547695 -0.4589141 97 84 74
-0.27078336 -0.18681157 -0.46102655 148 124 103
-0.24731676 -0.18645588 -0.4597839 119 98 76
-0.22413294 -0.18623985 -0.45888925 163 134 109
-0.2019032 -0.186831 -0.4599948 150 126 106
-0.17924523 -0.18710157 -0.46030512 151 125 103
-0.15626734 -0.18703884 -0.4597907 147 127 108
-0.13344595 -0.18713768 -0.4596761 141 124 109
-0.11054794 -0.18710431 -0.4592352 135 120 106
-0.087741435 -0.18719438 -0.45909923 134 119 105
-0.06477366 -0.18680531 -0.45778233 130 118 103
-0.04193947 -0.18647234 -0.4566055 129 117 102
-0.019229557 -0.18631245 -0.45585632 127 114 99
0.0034246242 -0.18652065 -0.45601335 124 111 99
0.026123822 -0.18686144 -0.45649576 122 109 96
0.048828 -0.18700498 -0.45649293 119 106 94
0.07158175 -0.18725058 -0.45674038 119 107 94
0.09421525 -0.18719426 -0.4562471 116 103 91
0.116795644 -0.18711583 -0.4557003 116 103 90
0.1393876 -0.18711127 -0.45533502 113 102 89
0.16212969 -0.18730773 -0.45546177 108 95 83
0.18465587 -0.18726563 -0.4550052 107 94 81
0.2072708 -0.18733425 -0.4548195 103 90 80
0.22992204 -0.18743894 -0.45472196 101 88 77
0.2529524 -0.18782157 -0.4553021 96 83 72
0.27750972 -0.18918762 -0.45827702 95 81 71
0.30172655 -0.19015153 -0.4602682 93 80 69
-0.28867704 -0.21157484 -0.46048442 157 129 103
-0.2656824 -0.21197851 -0.46102974 157 128 103
-0.24086626 -0.21085006 -0.458228 155 128 104
-0.21728818 -0.21065222 -0.45746112 136 116 98
-0.19569525 -0.2125329 -0.46122792 133 105 84
-0.1719138 -0.2122026 -0.460171 147 124 103
-0.14828172 -0.21194659 -0.4592773 136 118 99
-0.124840535 -0.21187776 -0.45879206 132 116 100
-0.101486646 -0.21191017 -0.45852748 127 113 98
-0.07804326 -0.2116533 -0.4576346 126 113 99
-0.054684777 -0.21141325 -0.45677936 122 109 95
-0.03141273 -0.21124017 -0.45607057 121 108 93
-0.008211655 -0.21133536 -0.4559442 120 107 94
0.014987819 -0.21144149 -0.45584163 116 103 91
0.0382256 -0.21175264 -0.45618293 114 101 88
0.06144648 -0.21185477 -0.45607135 114 101 89
0.08459557 -0.21178271 -0.45558324 112 99 86
0.1076909 -0.21168269 -0.45503536 109 96 83
0.13078819 -0.211658 -0.45465067 108 95 82
0.1538911 -0.21167992 -0.45436695 106 93 80
0.17705522 -0.21179594 -0.4542863 103 90 77
0.20026304 -0.2119553 -0.45429897 100 87 74
0.22334424 -0.21198487 -0.45403218 96 84 72
0.24663292 -0.21220525 -0.45417592 94 81 70
0.2711154 -0.21333535 -0.45627442 91 78 67
0.2956442 -0.21433823 -0.4580965 88 75 64
-0.28414616 -0.23813654 -0.46087965 149 123 97
-0.26018506 -0.23824616 -0.4607737 147 119 94
-0.23541698 -0.23754303 -0.45909053 146 116 93
-0.20498873 -0.23030482 -0.44473618 141 115 93
-0.18788917 -0.23805258 -0.45944342 104 86 68
-0.16387773 -0.23801209 -0.4590475 133 113 93
-0.13985287 -0.23789711 -0.4585078 123 106 91
-0.11586729 -0.2377695 -0.4579443 119 105 91
-0.0919988 -0.23782176 -0.457729 118 103 89
-0.068113856 -0.23777553 -0.4573237 117 104 91
-0.04421887 -0.23750313 -0.45648226 116 104 91
-0.02040806 -0.23731914 -0.45581242 111 98 86
0.0033479317 -0.23735842 -0.45557362 110 97 84
0.027106484 -0.2375365 -0.45560232 107 95 82
0.050863765 -0.23764518 -0.45549726 107 94 82
0.07460181 -0.23769388 -0.45527682 106 93 81
0.098188765 -0.23741192 -0.4544211 105 92 80
0.12186196 -0.23744597 -0.4541733 102 89 78
0.1454676 -0.2373952 -0.45376292 101 88 76
0.16899928 -0.23728609 -0.45324108 97 84 73
0.192703 -0.23743947 -0.45322287 96 83 72
0.21646264 -0.23764376 -0.4533021 93 80 69
0.24023 -0.23783681 -0.45335954 92 79 68
0.26428834 -0.23827451 -0.4538847 90 77 66
0.29064387 -0.24054104 -0.45790443 86 73 62
0.3161673 -0.24185155 -0.4600925 85 72 61
-0.302171 -0.26440394 -0.45867845 143 114 91
-0.27828154 -0.26503882 -0.45948038 141 114 90
-0.25482652 -0.2662287 -0.46124592 141 113 90
-0.22947966 -0.26546487 -0.45961472 140 111 88
-0.19928478 -0.25821182 -0.4467191 116 98 81
-0.17878187 -0.26321018 -0.455097 131 106 83
-0.15519285 -0.2644952 -0.45702514 114 99 85
-0.13073799 -0.2644671 -0.45667535 116 99 86
-0.10645732 -0.26480943 -0.45696732 114 99 85
-0.08205373 -0.26489127 -0.45680794 111 98 85
-0.057721015 -0.26527727 -0.45717463 109 96 84
-0.033274002 -0.26514423 -0.4566437 110 97 84
-0.008863725 -0.26472422 -0.45561776 105 92 79
0.015493484 -0.2650258 -0.45583838 104 91 78
0.03985637 -0.26513726 -0.45573065 103 90 77
0.06406118 -0.26460993 -0.45452192 104 91 78
0.08827868 -0.26446676 -0.45397636 101 88 75
0.1126271 -0.2647355 -0.45414034 98 85 73
0.13692205 -0.26484662 -0.4540329 99 86 73
0.16121699 -0.26495776 -0.45392546 97 83 73
0.18563406 -0.2652415 -0.45411453 94 81 71
0.20961031 -0.26493424 -0.4532886 91 78 67
0.23371376 -0.26485586 -0.4528563 88 74 64
0.25825027 -0.26525337 -0.45324036 88 75 64
0.2845861 -0.2672763 -0.45640883 84 71 61
0.30924183 -0.26755846 -0.45659226 83 70 59
-0.29735136 -0.2931936 -0.45837417 136 109 87
-0.2700888 -0.2909311 -0.45453858 135 108 86
-0.2451975 -0.29099426 -0.4543496 134 106 85
-0.21414706 -0.2829128 -0.44141483 126 100 78
-0.18527856 -0.27598077 -0.43029404 128 101 78
-0.16454758 -0.28088367 -0.43768468 78 59 45
-0.1441054 -0.28801507 -0.4485467 118 98 81
-0.11886467 -0.28645718 -0.445831 116 99 83
-0.09353359 -0.2837494 -0.4413248 114 96 81
-0.069089755 -0.28271058 -0.43942606 113 96 81
-0.045396563 -0.28521338 -0.4430475 112 96 80
-0.020979691 -0.28327796 -0.43975377 109 93 77
0.0030855488 -0.28123042 -0.43628967 109 92 77
0.027005415 -0.2814128 -0.43629745 107 91 75
0.050234888 -0.2778072 -0.43041828 107 89 74
0.07271278 -0.27376714 -0.4238717 107 89 74
0.091265015 -0.2606891 -0.40330553 108 89 74
0.104688495 -0.24107863 -0.37263268 106 88 73
0.122262165 -0.23572646 -0.36410078 104 85 71
0.14694487 -0.24351577 -0.3759377 102 84 69
0.18109444 -0.26302007 -0.40589625 99 81 66
0.21290457 -0.27531135 -0.42465687 99 80 65
0.242307 -0.28243497 -0.43540335 95 77 62
0.26791084 -0.28431302 -0.43803048 89 72 59
0.29427177 -0.28663266 -0.4413361 87 71 57
0.32438636 -0.29196903 -0.44929302 90 71 56
-0.1616608 -0.16460912 -0.23269784 227 224 222
-0.14743496 -0.16333926 -0.23075306 223 223 220
-0.13074446 -0.15882166 -0.22420323 162 167 188
-0.119122885 -0.16012889 -0.2259197 215 218 218
-0.10779269 -0.16217563 -0.22868179 224 222 218
-0.09525788 -0.1627054 -0.22929235 214 212 208
-0.082334474 -0.16261427 -0.2290234 214 211 207
-0.06965695 -0.16304566 -0.22949369 211 207 201
-0.056763645 -0.16302395 -0.22932293 212 209 204
-0.043958675 -0.16328675 -0.22955419 215 211 205
-0.031076424 -0.16330828 -0.2294445 212 204 172
-0.018210052 -0.16342345 -0.229467 210 200 168
-0.005339851 -0.16373225 -0.22976239 199 190 161
0.007590011 -0.16441792 -0.23058842 213 208 201
0.020541811 -0.16451721 -0.2305876 211 206 199
0.03340325 -0.16415977 -0.22994392 208 202 194
0.046316613 -0.16420776 -0.22987117 207 201 192
0.05934499 -0.16457118 -0.23024186 209 204 195
0.07234632 -0.16476713 -0.23037675 209 202 193
0.08536883 -0.16496222 -0.2305102 201 194 185
0.098289 -0.16495356 -0.23035754 204 196 188
0.11126808 -0.16504632 -0.23034722 197 189 181
0.124284714 -0.1651812 -0.23039587 195 187 179
0.13802083 -0.16615391 -0.23161775 192 182 172
0.15147403 -0.16666424 -0.2321909 186 176 166
0.16720727 -0.16937885 -0.23584661 184 172 163
-0.14557156 -0.16520853 -0.2124455 223 220 216
-0.12986206 -0.16093051 -0.20679776 155 162 169
-0.11473874 -0.15656783 -0.20104745 159 149 142
-0.10443232 -0.15851732 -0.20344144 190 184 179
-0.09158104 -0.15659307 -0.20084159 213 210 206
-0.08021007 -0.1569963 -0.20124167 214 212 206
-0.068790734 -0.1574085 -0.20165282 213 212 205
-0.05725937 -0.1576583 -0.2018545 213 209 203
-0.045680948 -0.15784594 -0.20197603 208 204 198
-0.03408429 -0.15804204 -0.20210817 213 209 203
-0.022427293 -0.15795232 -0.2018732 217 213 205
-0.010802933 -0.15804507 -0.20187253 221 217 211
0.0008366115 -0.1589199 -0.20287468 214 208 201
0.0125142615 -0.15882085 -0.20262751 192 186 177
0.024104496 -0.15831764 -0.20186295 211 205 198
0.035757527 -0.15843439 -0.20189276 213 209 202
0.047239482 -0.15796609 -0.2011741 212 208 201
0.058658425 -0.15753499 -0.20050377 207 203 198
0.07041659 -0.15800379 -0.20098399 203 200 194
0.08305035 -0.16000724 -0.20342322 200 196 190
0.095417514 -0.16109274 -0.20468803 195 191 185
0.10799357 -0.16226158 -0.20605753 191 187 181
0.120763905 -0.16346999 -0.20747581 193 188 183
0.13373867 -0.16471991 -0.20894523 189 185 179
0.14705688 -0.16615587 -0.21064968 186 181 176
0.16171327 -0.16875817 -0.21383606 184 180 175
-0.14328839 -0.16617258 -0.19520654 229 227 222
-0.1286735 -0.16232842 -0.19056295 202 199 191
-0.108317636 -0.14979255 -0.17568707 115 97 90
-0.10407885 -0.15922399 -0.18668783 178 170 166
-0.08992604 -0.15391216 -0.18033044 209 205 200
-0.07900823 -0.15344042 -0.17967138 221 218 214
-0.06862206 -0.15400384 -0.18022946 218 216 212
-0.05815925 -0.15455492 -0.18077235 214 212 205
-0.047144923 -0.15351932 -0.17945218 214 209 204
-0.036497783 -0.15340741 -0.17921706 208 203 196
-0.025884917 -0.15336806 -0.17906722 209 204 196
-0.015321226 -0.15372206 -0.17937839 208 203 195
-0.004705822 -0.1536993 -0.17924793 212 208 200
0.005907672 -0.15385298 -0.1793241 213 211 204
0.016569514 -0.1542991 -0.17974214 206 204 198
0.027252896 -0.15456246 -0.17994602 206 205 200
0.038196053 -0.15572958 -0.18120548 207 205 200
0.04887618 -0.1556046 -0.18095472 201 199 194
0.059359334 -0.15504028 -0.18019153 196 194 190
0.0705592 -0.15620878 -0.18145008 192 190 186
0.08240348 -0.15829633 -0.18377835 192 190 186
0.09426432 -0.15994148 -0.1855885 191 189 185
0.10603112 -0.16111682 -0.18684952 190 188 181
0.11797204 -0.16231696 -0.18813787 185 183 178
0.13014065 -0.16360186 -0.18952322 185 182 178
0.14372112 -0.16629986 -0.19254921 182 181 176
-0.12769035 -0.16369313 -0.176092 236 235 230
-0.10787672 -0.1509727 -0.16226925 131 124 115
-0.1031994 -0.15898399 -0.17081477 133 127 121
-0.091223225 -0.15627462 -0.16779827 217 213 207
-0.081109665 -0.15646587 -0.167909 234 232 227
-0.0711065 -0.15694435 -0.1683287 230 228 222
-0.059933096 -0.15453017 -0.16563617 216 214 207
-0.04888113 -0.15148045 -0.1622634 207 203 195
-0.038328357 -0.14879274 -0.15928343 210 205 198
-0.02856539 -0.14840084 -0.1587722 207 201 192
-0.018937485 -0.14864768 -0.15894704 215 211 203
-0.009258002 -0.14844875 -0.15864348 216 212 205
0.00037950714 -0.14721479 -0.15723065 210 208 202
0.009830459 -0.14573132 -0.15555201 17 15 13
0.019788379 -0.14926696 -0.15924981 198 198 195
0.029833335 -0.1510068 -0.16102146 198 198 195
0.040148832 -0.15292457 -0.16298133 195 194 189
0.05093819 -0.15551989 -0.16566324 191 191 186
0.06184649 -0.15758218 -0.16777255 193 192 190
0.07218628 -0.15786731 -0.16798179 191 191 188
0.082472935 -0.15799454 -0.16802226 190 190 185
0.09278537 -0.15814723 -0.16808979 189 189 184
0.10340958 -0.15874852 -0.16863537 186 184 180
0.11460811 -0.16003805 -0.16991346 184 184 179
0.12567024 -0.16095202 -0.17079018 179 179 174
0.14160034 -0.16739658 -0.177551 177 177 174
-0.1274018 -0.16570853 -0.16377512 243 241 235
-0.10977442 -0.15528668 -0.15335971 166 166 149
-0.102894485 -0.15950906 -0.15745434 82 73 63
-0.09185945 -0.15749069 -0.15536919 214 212 206
-0.082065076 -0.15736371 -0.15515679 240 239 235
-0.07180643 -0.15617535 -0.15389556 241 240 236
-0.061233964 -0.15380447 -0.15146756 224 224 219
-0.050829023 -0.15103364 -0.14864741 212 208 202
-0.041104693 -0.14948311 -0.14703445 206 200 191
-0.031761713 -0.14881088 -0.14628941 208 203 194
-0.02252005 -0.14822425 -0.14562951 212 207 198
-0.013338959 -0.14742994 -0.14476575 212 207 198
-0.0043201363 -0.14926608 -0.14649254 94 83 74
0.004873496 -0.14989936 -0.14703381 99 79 61
0.014058056 -0.14972323 -0.1467785 159 153 146
0.023393698 -0.1506347 -0.14759232 194 193 189
0.032830283 -0.15151612 -0.14837569 194 194 191
0.042614166 -0.15324381 -0.1499889 192 192 189
0.05260642 -0.15497102 -0.1515998 184 183 178
0.06225771 -0.15536302 -0.1518995 192 194 190
0.072041206 -0.15594341 -0.15238346 188 187 184
0.08154704 -0.15588072 -0.15223691 185 185 182
0.09087185 -0.15553668 -0.15181506 184 183 180
0.100680776 -0.15600067 -0.15218423 182 182 177
0.110763155 -0.15677245 -0.15285389 181 180 177
0.12139517 -0.15813263 -0.15409781 177 176 174
-0.11090444 -0.15841813 -0.14406177 183 181 158
-0.10434746 -0.16267824 -0.14786348 123 115 89
-0.08925107 -0.15311901 -0.13907753 175 169 162
-0.07911684 -0.15088075 -0.13696381 235 237 231
-0.07004698 -0.15035732 -0.13641211 254 255 254
-0.06161928 -0.15125667 -0.13715437 242 243 242
-0.053384896 -0.15300909 -0.1386708 217 217 214
-0.044628922 -0.15364607 -0.13917264 210 207 199
-0.035639666 -0.15356688 -0.13902396 211 207 197
-0.026640618 -0.15334564 -0.13874653 209 203 192
-0.017799215 -0.15427957 -0.13951655 114 105 93
-0.008872167 -0.1555969 -0.14063305 52 43 35
0.00017079125 -0.15261896 -0.13785882 137 117 97
0.009084679 -0.15302584 -0.13815095 190 188 182
0.017959446 -0.15277822 -0.1378507 200 199 197
0.026799915 -0.15252843 -0.13754877 203 202 197
0.03562849 -0.15236999 -0.13732968 199 199 194
0.044206027 -0.15145692 -0.13642937 192 192 189
0.05283971 -0.15101005 -0.13595073 185 185 180
0.061466582 -0.15068324 -0.1355809 183 183 178
0.070261985 -0.15079942 -0.13561077 184 184 179
0.07912735 -0.15102945 -0.13574316 183 183 179
0.08799083 -0.1512189 -0.1358388 182 182 177
0.0973409 -0.15212668 -0.1365808 178 178 173
0.106532976 -0.15266986 -0.13699397 173 172 169
0.119505554 -0.15804657 -0.14175189 176 178 174
-0.112574376 -0.16223243 -0.13609335 217 213 191
-0.10505341 -0.16461909 -0.1380234 124 117 91
-0.09121371 -0.15659215 -0.13120966 139 133 127
-0.07914067 -0.15020196 -0.12577659 234 234 229
-0.07119076 -0.15106165 -0.12642865 234 234 229
-0.063802406 -0.15350476 -0.1284069 250 252 250
-0.056008507 -0.15556765 -0.13006447 208 204 198
-0.047791332 -0.156978 -0.13117391 208 204 196
-0.03941233 -0.15835513 -0.13225429 208 204 197
-0.0307327 -0.15893295 -0.13266507 112 105 96
-0.022333138 -0.1620764 -0.13521951 80 69 58
-0.012939395 -0.15678278 -0.13072377 137 109 83
-0.0041997335 -0.15425003 -0.12853779 176 167 157
0.0043879123 -0.15557198 -0.12957041 197 195 188
0.012955962 -0.15510443 -0.12910956 206 206 201
0.021447746 -0.15450339 -0.12853792 196 196 189
0.029811133 -0.15362166 -0.12773308 196 196 190
0.03807772 -0.15276305 -0.12694833 197 197 190
0.046212748 -0.15180437 -0.12608112 193 195 189
0.054126903 -0.15054932 -0.12496838 188 189 186
0.06192256 -0.14935449 -0.123906866 190 191 188
0.0696511 -0.14830542 -0.12296758 185 185 181
0.077330835 -0.14739072 -0.12214083 184 184 179
0.08562381 -0.14768928 -0.12232169 182 182 177
0.09427431 -0.14849442 -0.12292241 176 175 170
0.10285787 -0.14908324 -0.12334314 176 176 171
