ply
format ascii 1.0
element vertex 494
property float x
property float y
property float z
property uchar red
property uchar green
property uchar blue
element face 0
property list uchar int vertex_indices
end_header
-0.2860342 -0.050893974 -0.54884994 221 196 172
-0.26930702 -0.052128077 -0.5622685 209 182 158
-0.25389308 -0.05387094 -0.5813017 116 95 87
-0.22728671 -0.053419847 -0.5760672 174 149 131
-0.20016877 -0.05272402 -0.56813306 174 149 136
-0.17061804 -0.05112152 -0.5501923 175 153 144
-0.061984446 -0.022226265 -0.23096928 124 67 42
-0.052968618 -0.022514867 -0.23405592 112 45 32
-0.044810265 -0.023359692 -0.243275 94 33 20
-0.0358694 -0.024205718 -0.25249943 102 44 25
-0.047113795 -0.04447462 -0.4757673 150 126 107
-0.027070288 -0.04458227 -0.47675073 146 122 99
-0.0069601103 -0.044828963 -0.4792641 143 121 99
0.01336849 -0.04508161 -0.4818407 138 116 94
0.03385725 -0.04525601 -0.48355442 137 115 97
0.054281227 -0.04526038 -0.48339683 135 113 93
0.07471286 -0.04527496 -0.48335153 137 115 94
0.09514544 -0.04529021 -0.48331353 131 109 88
0.11570511 -0.04535328 -0.4838008 134 112 93
0.13626888 -0.04540336 -0.4841448 134 112 90
0.1568374 -0.04544568 -0.48440352 132 111 91
0.17740533 -0.04548159 -0.4845917 128 109 87
0.19802785 -0.045525316 -0.4848654 132 110 88
0.21893036 -0.04562001 -0.48569733 128 108 86
0.24028379 -0.045784052 -0.4872882 120 100 81
0.26256636 -0.046082184 -0.49034607 124 103 81
-0.2703802 -0.07031852 -0.5299077 2 3 27
-0.25499913 -0.072414264 -0.54580337 2 1 3
-0.24259587 -0.075850494 -0.5719635 119 101 93
-0.08568915 -0.030579511 -0.22488272 121 62 43
-0.07447038 -0.029979374 -0.22021227 96 44 28
-0.065744355 -0.03030543 -0.22263722 92 40 26
-0.05830752 -0.03141135 -0.23103045 93 40 27
-0.05079024 -0.03292419 -0.24253212 85 30 18
-0.07234914 -0.058275007 -0.43638673 150 126 107
-0.059319478 -0.06449369 -0.4838012 149 126 105
-0.03801336 -0.06375763 -0.4780155 145 121 100
-0.017409831 -0.06378635 -0.47807854 140 117 96
0.003212118 -0.063966595 -0.47929904 141 120 98
0.023949906 -0.06416396 -0.48064956 137 116 94
0.044762347 -0.064298116 -0.4815165 135 115 95
0.06556181 -0.064345434 -0.48172027 130 108 88
0.08636359 -0.064379156 -0.4818198 133 112 91
0.10728297 -0.06447442 -0.48238882 129 107 88
0.12826952 -0.06457674 -0.48301128 134 112 92
0.14945857 -0.06474022 -0.48409942 130 109 88
0.17046767 -0.064801 -0.4844044 130 110 90
0.19166477 -0.06491392 -0.48510626 128 108 86
0.2131198 -0.0650845 -0.4862466 122 102 84
0.23445216 -0.06519419 -0.48692256 130 110 91
0.25641006 -0.06544408 -0.48866522 124 102 83
0.27794233 -0.06556065 -0.4893923 122 102 82
-0.121240236 -0.039631244 -0.2236751 124 83 71
-0.10661933 -0.037974097 -0.21398291 106 58 39
-0.09674806 -0.037789237 -0.21285032 98 48 32
-0.08788205 -0.037984055 -0.21392383 100 49 34
-0.079117835 -0.038271952 -0.21553719 93 40 25
-0.07116033 -0.039067168 -0.22009487 76 27 12
-0.065102816 -0.04128682 -0.23291725 81 28 13
-0.11344446 -0.0843002 -0.4824275 153 130 108
-0.095255665 -0.08706225 -0.49831668 151 127 106
-0.0721405 -0.08567801 -0.49015287 144 120 97
-0.04981561 -0.08441644 -0.48270443 144 122 100
-0.028193053 -0.08329731 -0.47608575 139 117 95
-0.0072685783 -0.08363787 -0.47792852 136 115 93
0.013777717 -0.08372478 -0.4783008 135 113 92
0.034898628 -0.08389984 -0.4791835 132 112 90
0.05606016 -0.08401534 -0.47972077 132 110 90
0.07729172 -0.084150836 -0.48037353 130 109 89
0.098559655 -0.08426559 -0.4809058 127 106 86
0.11998481 -0.08445359 -0.4818615 127 106 86
0.14149469 -0.08463965 -0.48280534 132 110 90
0.16302861 -0.084793665 -0.48356354 126 106 86
0.18481217 -0.0850283 -0.4847873 124 104 84
0.2065863 -0.08521403 -0.48572755 128 108 88
0.22847576 -0.08541023 -0.48672795 122 102 84
0.25045872 -0.08560695 -0.48773062 123 102 83
0.27238882 -0.08575889 -0.48847425 120 100 81
-0.108168446 -0.044963114 -0.20368122 73 25 7
-0.09999892 -0.04538017 -0.20556737 94 42 28
-0.092329755 -0.04612478 -0.20897208 86 35 19
-0.084549166 -0.046976604 -0.21287234 88 36 21
-0.077197574 -0.048307568 -0.21899228 134 109 89
-0.14560103 -0.10321407 -0.4734566 125 104 84
-0.11074069 -0.09204186 -0.42156646 138 100 83
-0.049943574 -0.05043605 -0.22869606 110 58 35
-0.038862076 -0.04937684 -0.22373469 105 41 24
-0.028901473 -0.04946571 -0.22409244 105 41 26
-0.019465428 -0.051028505 -0.23127407 102 43 26
-0.018165618 -0.10423798 -0.4775103 133 112 90
0.003276437 -0.10379539 -0.4753469 133 113 91
0.024685303 -0.103992164 -0.47614253 129 109 89
0.04624231 -0.104348056 -0.47767365 129 110 89
0.067921765 -0.10467473 -0.47906893 127 107 87
0.08961143 -0.10486455 -0.47983092 127 105 85
0.1114152 -0.10509284 -0.48077023 125 104 86
0.1333715 -0.10537073 -0.48193824 124 102 85
0.15529516 -0.10555396 -0.4826684 123 101 84
0.17736937 -0.10578461 -0.48361725 124 104 84
0.19953318 -0.10601535 -0.48456588 121 101 83
0.2219518 -0.10632397 -0.48587373 120 100 81
0.24418652 -0.10650151 -0.4865759 119 99 83
0.26707396 -0.10690963 -0.4883416 117 97 78
0.28763798 -0.10641272 -0.48593155 118 98 81
-0.11356128 -0.05337224 -0.20087889 95 49 33
-0.105090596 -0.053726505 -0.20219338 93 40 25
-0.097101934 -0.05441292 -0.20478055 95 44 27
-0.090442985 -0.05605406 -0.21102569 91 42 27
-0.08100726 -0.056196786 -0.21152647 94 43 21
-0.07161252 -0.056408387 -0.21229087 111 55 37
-0.062751345 -0.057163555 -0.21513684 102 50 34
-0.05376553 -0.058067482 -0.21855117 94 42 25
-0.044184875 -0.05860591 -0.22056472 95 44 24
-0.034788292 -0.05977949 -0.22500847 87 30 16
-0.025302581 -0.061742257 -0.23247023 87 30 16
-0.023774281 -0.10096262 -0.38247165 128 106 82
-0.007553556 -0.124697596 -0.47317484 129 110 88
0.014236816 -0.12525062 -0.4751858 127 108 87
0.03618002 -0.12568071 -0.47672597 123 103 83
0.05823143 -0.12603122 -0.4779611 123 104 83
0.080382824 -0.1263542 -0.47909057 119 99 79
0.10264449 -0.12667993 -0.4802299 119 99 81
0.124967135 -0.12695765 -0.48118544 115 95 77
0.14736122 -0.12721789 -0.4820737 119 100 81
0.1696968 -0.12737148 -0.48255432 117 97 78
0.19222727 -0.12762089 -0.48340058 117 97 79
0.21498019 -0.12795271 -0.48456088 114 96 76
0.23789968 -0.12831411 -0.4858336 117 97 79
0.26098803 -0.12869863 -0.4871939 113 93 75
0.28384596 -0.12892199 -0.48793888 115 95 77
-0.11013995 -0.06210129 -0.1986257 130 68 50
-0.101810604 -0.062672585 -0.20043932 131 72 51
-0.09400501 -0.06370831 -0.20375909 123 65 43
-0.08600696 -0.06483474 -0.20737168 128 64 43
-0.07733961 -0.06568712 -0.210094 125 66 45
-0.068510436 -0.066632204 -0.21311583 117 60 36
-0.060208093 -0.06849315 -0.21910548 88 36 16
-0.05479876 -0.07505811 -0.24033937 138 117 93
-0.07001261 -0.1204539 -0.38739774 133 111 91
-0.060490754 -0.14055444 -0.45244214 131 109 87
-0.040696014 -0.14572603 -0.4691017 127 107 87
-0.018836629 -0.14696215 -0.4730092 125 106 84
0.0033777726 -0.1475782 -0.4749074 122 103 83
0.025724698 -0.14791474 -0.4758999 120 101 78
0.048184846 -0.14829805 -0.47704342 121 101 81
0.07072596 -0.1486178 -0.47798073 119 100 79
0.09339263 -0.1489894 -0.47908536 114 94 75
0.1161751 -0.14937061 -0.48022068 114 94 75
0.1389958 -0.14967448 -0.48110536 114 94 76
0.1616844 -0.14977773 -0.481341 115 95 77
0.18474342 -0.15015692 -0.48246852 112 94 76
0.20771714 -0.15039618 -0.48314342 111 93 74
0.23109695 -0.15085354 -0.48452267 110 92 74
0.2545452 -0.15127236 -0.48577684 112 92 76
0.27898157 -0.15215765 -0.48853713 105 87 70
0.3008527 -0.15163392 -0.48674613 107 89 70
-0.11564887 -0.07079456 -0.19573931 142 76 53
-0.106954955 -0.071220316 -0.19689247 163 96 70
-0.09883039 -0.072137296 -0.19941868 165 90 66
-0.09076723 -0.07329873 -0.2026273 158 84 62
-0.082772836 -0.07479939 -0.2067828 150 83 59
-0.07503256 -0.076966524 -0.21279918 64 17 4
-0.0657783 -0.078036904 -0.21574892 130 66 45
-0.05667963 -0.079724595 -0.22042193 125 66 47
-0.04498969 -0.07773055 -0.21481046 133 67 47
-0.032822642 -0.07346114 -0.2028476 126 61 38
-0.022454131 -0.071268655 -0.19668773 136 64 44
-0.01398114 -0.07642528 -0.21104342 129 57 37
-0.007973417 -0.17123997 -0.47560337 118 101 80
0.014833145 -0.17104189 -0.474959 116 99 77
0.037698723 -0.17136067 -0.47575662 115 97 76
0.06066157 -0.17172427 -0.47667897 111 93 72
0.08374671 -0.1721466 -0.47776473 110 93 73
0.10689342 -0.17249371 -0.47864032 109 89 71
0.1301302 -0.17284252 -0.4795203 110 90 71
0.15345593 -0.17319119 -0.4803995 110 92 73
0.1768244 -0.17349496 -0.48115328 109 91 72
0.20037639 -0.17389007 -0.48216116 107 89 70
0.22410169 -0.1743404 -0.48332247 106 88 69
0.24801926 -0.17484377 -0.484631 106 89 74
0.2724811 -0.1756109 -0.48667338 105 86 67
0.29605347 -0.17573752 -0.48693195 104 85 66
-0.112104475 -0.07981434 -0.19324744 181 112 84
-0.10361853 -0.080543235 -0.1949926 182 111 84
-0.09532907 -0.081585616 -0.19750278 164 95 72
-0.08712945 -0.08294766 -0.20079261 163 92 67
-0.07933352 -0.0850856 -0.20597564 132 68 42
-0.06982445 -0.08576025 -0.2075847 145 77 51
-0.059534278 -0.085548356 -0.2070294 134 71 51
-0.049239572 -0.08523759 -0.20623305 133 72 49
-0.03899229 -0.08486343 -0.20528233 128 62 43
-0.029113399 -0.085304946 -0.20632161 118 55 35
-0.01941992 -0.08707044 -0.21058945 111 50 29
-0.019782191 -0.1950273 -0.47379106 116 99 77
0.0034766623 -0.19478446 -0.47311154 115 98 75
0.026780061 -0.19529715 -0.47427386 112 95 72
0.05018121 -0.1957283 -0.47523707 111 93 72
0.073658496 -0.19609848 -0.47605127 110 93 74
0.09722015 -0.19646774 -0.47686297 111 91 73
0.12087831 -0.19685629 -0.4777213 110 92 73
0.1446267 -0.19724622 -0.4785827 107 89 71
0.16846463 -0.19763625 -0.47944394 107 89 70
0.1925751 -0.19821268 -0.48075867 106 88 69
0.21680906 -0.19877939 -0.4820492 104 87 67
0.24141216 -0.19954029 -0.48381177 106 88 69
0.26580995 -0.20001535 -0.48487824 107 89 73
0.29059422 -0.20067964 -0.48640463 104 85 69
0.31682873 -0.20216258 -0.48992142 101 83 63
-0.11752998 -0.088652134 -0.18995157 163 96 71
-0.108470775 -0.08900278 -0.19067441 167 101 72
-0.10016258 -0.090089105 -0.19298388 152 83 61
-0.09188135 -0.09143378 -0.19584972 146 79 56
-0.084129475 -0.09368509 -0.20066954 139 78 56
-0.07648982 -0.096690714 -0.20711386 135 112 89
-0.06870855 -0.10043927 -0.21515732 134 113 91
-0.07056723 -0.12225569 -0.26213712 125 105 85
-0.100187115 -0.21325399 -0.45817193 122 102 80
-0.07877729 -0.21772946 -0.46773213 118 98 76
-0.05519876 -0.21745323 -0.46705365 115 97 75
-0.03199558 -0.21934469 -0.47104383 114 97 74
-0.008343583 -0.22005305 -0.47248507 114 97 74
0.015470246 -0.2209205 -0.47426823 112 95 72
0.03938897 -0.22135009 -0.4751083 109 92 71
0.06333725 -0.22157371 -0.4755048 109 90 69
0.08735467 -0.22185826 -0.4760322 106 88 67
0.11147283 -0.22222713 -0.47674078 107 87 67
0.13570489 -0.22265695 -0.47758022 105 87 66
0.1599103 -0.22292663 -0.47807494 105 87 67
0.184304 -0.22335657 -0.47891405 103 85 66
0.20926215 -0.22429061 -0.48083657 103 85 66
0.23435244 -0.2251612 -0.48262197 102 85 66
0.25990748 -0.22627309 -0.4849253 101 83 64
0.28466442 -0.2265682 -0.48547283 101 83 64
0.30946156 -0.22684887 -0.48598912 101 83 66
-0.113406114 -0.09753966 -0.18647389 135 72 50
-0.10456622 -0.098192334 -0.18769592 144 73 52
-0.09584144 -0.099094644 -0.18939717 149 80 60
-0.08720737 -0.10030363 -0.19168696 138 71 49
-0.07827211 -0.101432 -0.1938211 166 93 66
-0.06856752 -0.10175263 -0.19440332 142 78 55
-0.057169594 -0.099249676 -0.18956396 147 81 54
-0.045809213 -0.09578404 -0.18287821 141 73 55
-0.036764704 -0.09660787 -0.18442786 124 54 34
-0.052705128 -0.18722314 -0.3582894 115 65 45
-0.045255486 -0.24789093 -0.47463015 114 96 75
-0.020807495 -0.24775286 -0.47428277 111 94 72
0.003622878 -0.24837843 -0.47540015 110 92 71
0.028111 -0.24846612 -0.4754857 112 95 73
0.052695323 -0.24893571 -0.47630343 108 91 70
0.07722696 -0.24895379 -0.47625527 106 89 68
0.101824746 -0.24913153 -0.4765131 106 87 68
0.1266021 -0.24959773 -0.47732365 104 86 67
0.15137489 -0.24991138 -0.47784165 106 88 69
0.17624523 -0.25027984 -0.4784644 106 88 69
0.20169887 -0.25128275 -0.48030213 104 86 69
0.22725259 -0.25218114 -0.48193905 104 86 67
0.25324383 -0.25334072 -0.4840754 100 85 65
0.28027105 -0.2552319 -0.48761156 102 84 66
0.30584502 -0.25561076 -0.48825195 100 82 65
0.33091366 -0.25554785 -0.48804662 96 78 61
-0.11802853 -0.10581013 -0.18175992 119 63 43
-0.10966839 -0.10694001 -0.1836773 112 57 34
-0.10170888 -0.108712815 -0.18670239 113 55 34
-0.09571001 -0.11316922 -0.19435196 109 53 35
-0.08478145 -0.11220404 -0.19265567 108 63 39
-0.07625071 -0.11456164 -0.19668527 113 65 45
-0.06535054 -0.113555774 -0.19491906 113 61 41
-0.05333527 -0.10987333 -0.18854319 108 54 34
-0.0442198 -0.111835204 -0.1918899 106 58 41
-0.08514694 -0.2799866 -0.48139128 112 95 72
-0.05941958 -0.2784498 -0.4786635 109 92 71
-0.034053877 -0.2775579 -0.4770467 112 94 73
-0.00888351 -0.2776537 -0.47713017 111 94 71
0.016326353 -0.27816325 -0.47792563 116 98 75
0.04158829 -0.27842736 -0.47829852 124 107 83
0.06692694 -0.27882278 -0.47889706 136 117 93
0.0922962 -0.27910435 -0.4792997 143 122 98
0.11747431 -0.2788249 -0.47873738 146 127 102
0.1424022 -0.2781665 -0.47752383 150 129 106
0.16791287 -0.2786691 -0.4783063 148 127 104
0.1938436 -0.27964637 -0.4799043 152 131 108
0.2212423 -0.28225997 -0.48431346 155 133 114
0.24673553 -0.28217563 -0.48408598 154 132 111
0.26836038 -0.2781327 -0.4770587 152 128 107
0.29386228 -0.27843073 -0.4774891 152 129 107
0.31751764 -0.27708524 -0.47509727 129 109 89
-0.12381505 -0.12476345 -0.19368826 98 65 47
-0.14740904 -0.16196786 -0.25154233 174 151 128
-0.13790496 -0.16685607 -0.25910446 175 149 129
-0.12692082 -0.17086415 -0.26529515 172 147 124
-0.1141295 -0.17315932 -0.26881993 171 146 119
-0.10183021 -0.17697786 -0.27471212 170 145 120
-0.089398466 -0.18183456 -0.28221628 169 144 116
-0.075402975 -0.18486163 -0.286874 167 142 118
-0.060496353 -0.18664442 -0.28959647 161 138 113
-0.04450075 -0.1851165 -0.28717378 163 141 115
-0.027976247 -0.17847319 -0.27680498 169 147 117
-0.012649743 -0.1729015 -0.26810417 191 169 138
0.0017910133 -0.17119834 -0.26541418 191 171 141
0.016062198 -0.17070423 -0.26460245 195 173 142
0.030371562 -0.17088285 -0.2648354 193 171 140
0.044605136 -0.17067245 -0.26446438 199 175 144
0.058859166 -0.17062595 -0.26434788 204 182 151
0.07344368 -0.17135897 -0.265441 210 188 154
0.087667815 -0.17116578 -0.26509675 218 196 162
0.1013613 -0.17015214 -0.26347998 224 202 170
0.11504581 -0.16937609 -0.26223218 226 204 175
0.12848984 -0.16846049 -0.2607684 227 205 173
0.14233544 -0.16819501 -0.26031306 228 206 174
0.15630463 -0.16811009 -0.2601378 231 209 178
0.17098424 -0.16873297 -0.26105955 230 206 177
0.18596573 -0.16953477 -0.26225823 229 206 173
-0.15622386 -0.16201092 -0.2284128 173 146 122
-0.14532453 -0.16394864 -0.23110938 171 146 121
-0.13275872 -0.16420664 -0.23143508 165 140 118
-0.12086687 -0.16543747 -0.23313302 173 148 126
-0.10780977 -0.16518101 -0.2327326 180 154 128
-0.09482855 -0.16498375 -0.23241581 194 168 140
-0.08176419 -0.16455388 -0.23177111 194 168 140
-0.06850763 -0.1634999 -0.2302468 191 165 137
-0.055747613 -0.16341482 -0.23008868 185 160 134
-0.043168254 -0.1639639 -0.2308243 185 160 132
-0.030615108 -0.16511987 -0.23241483 185 163 133
-0.017802881 -0.16551916 -0.23293878 183 161 131
-0.0049128183 -0.16527575 -0.23255725 181 161 131
0.007949349 -0.16525686 -0.23249203 187 165 135
0.020801771 -0.16519758 -0.23236997 185 165 135
0.033566188 -0.16477026 -0.23172979 188 166 134
0.04623099 -0.16423519 -0.2309381 193 171 143
0.05906224 -0.16438714 -0.23111364 196 174 145
0.07190746 -0.16452019 -0.23126249 203 179 150
0.084665075 -0.16444887 -0.23112375 207 183 154
0.09743111 -0.16441263 -0.2310344 215 191 162
0.110294245 -0.16452955 -0.23116046 208 184 151
0.12309265 -0.16453898 -0.23113534 224 200 171
0.13601045 -0.164691 -0.2313107 226 203 172
0.14845885 -0.16430606 -0.23073117 228 204 172
0.16356166 -0.16665293 -0.23399143 230 206 175
-0.1488406 -0.17189276 -0.22085398 160 137 112
-0.13092317 -0.16512415 -0.2121198 189 163 139
-0.1178456 -0.16367638 -0.21022473 191 164 140
-0.10533422 -0.1627712 -0.20902729 187 160 134
-0.092408165 -0.16091163 -0.20660444 190 163 139
-0.07963061 -0.15880077 -0.20385969 186 159 133
-0.067489594 -0.15744874 -0.20209014 183 158 132
-0.056142814 -0.15777157 -0.20247123 182 157 132
-0.044694528 -0.15789786 -0.20259993 177 154 128
-0.03324429 -0.15809803 -0.20282337 176 154 126
-0.021743992 -0.1581353 -0.20283774 179 157 129
-0.01022254 -0.157895 -0.202496 177 154 126
0.001269583 -0.15823284 -0.20289591 178 157 129
0.012852658 -0.15906653 -0.20393161 180 159 131
0.024409434 -0.15897445 -0.20377989 180 159 132
0.03580287 -0.15824404 -0.20280986 183 163 135
0.047252502 -0.15805155 -0.20252965 185 162 135
0.058931466 -0.15854105 -0.20312357 187 164 137
0.071122006 -0.16000412 -0.20496479 191 168 143
0.08353213 -0.16147879 -0.20682022 192 167 141
0.09569464 -0.16218181 -0.20768662 196 171 145
0.107491754 -0.1621905 -0.20766346 199 175 148
0.119328916 -0.16225287 -0.20770903 204 182 154
0.13089307 -0.16197261 -0.20731592 204 180 151
0.14394242 -0.16340274 -0.20911239 203 181 153
0.15910143 -0.16680005 -0.21342601 208 184 155
-0.14019816 -0.16540696 -0.19438401 184 159 135
-0.12722568 -0.16329353 -0.19186996 183 156 130
-0.1151909 -0.16208439 -0.1904186 183 158 135
-0.10342289 -0.16102852 -0.18914765 176 149 126
-0.09148904 -0.15942863 -0.18723853 180 153 129
-0.07936588 -0.1570157 -0.18437582 180 154 131
-0.068046466 -0.15567772 -0.18277545 179 154 129
-0.057133492 -0.15493974 -0.18187954 176 152 127
-0.04671398 -0.15550868 -0.18251699 174 149 127
-0.036255807 -0.15624624 -0.18335201 175 150 125
-0.025485393 -0.15566857 -0.18264441 174 151 127
-0.014809746 -0.15524316 -0.18211555 175 152 128
-0.00419917 -0.15504973 -0.18185882 174 151 126
0.006451985 -0.15633978 -0.1833409 175 154 127
0.017202804 -0.1569588 -0.18403614 176 154 128
0.027806822 -0.1563219 -0.18325959 177 154 131
0.038294427 -0.15557618 -0.1823558 175 152 127
0.048886582 -0.1554782 -0.182211 175 152 129
0.059858035 -0.15638806 -0.18324652 176 153 129
0.07162784 -0.1587641 -0.18599844 174 150 126
0.083327174 -0.16038935 -0.18787049 180 157 132
0.094489016 -0.16074207 -0.18825239 181 158 134
0.10544594 -0.16071606 -0.18819092 180 157 133
0.116350845 -0.1606257 -0.18805419 184 161 136
0.12731725 -0.16062866 -0.18802665 182 159 134
0.13973933 -0.1622997 -0.18995032 180 158 131
-0.12246844 -0.15968984 -0.17214759 170 144 122
-0.1120656 -0.15953949 -0.17195739 171 146 122
-0.10110392 -0.1584832 -0.17079236 170 145 121
-0.090284474 -0.15743355 -0.16963482 172 145 121
-0.07978968 -0.15675113 -0.1688727 175 148 125
-0.06983484 -0.15708178 -0.16920054 172 145 123
-0.059131905 -0.15555115 -0.16752656 171 146 123
-0.048740916 -0.15437645 -0.16623585 168 145 122
-0.039008882 -0.15522859 -0.16712455 169 144 124
-0.029124686 -0.15585114 -0.1677662 168 147 125
-0.018720627 -0.1527838 -0.16444202 172 149 125
-0.008948947 -0.15400802 -0.16573039 172 149 126
0.0010164401 -0.15850988 -0.17053968 170 146 123
0.011222492 -0.15847947 -0.17047888 172 151 127
0.021086656 -0.15605624 -0.16784823 171 150 126
0.030844657 -0.15465243 -0.16631313 169 148 126
0.041300956 -0.15650451 -0.16827416 172 148 127
0.052041452 -0.15848903 -0.17037672 172 149 128
0.06244811 -0.15899941 -0.1708964 167 146 124
0.0729066 -0.15948078 -0.17138474 168 147 127
0.08306475 -0.15928024 -0.17114131 171 148 125
0.09308557 -0.1588945 -0.17069925 168 146 124
0.10331443 -0.15890102 -0.1706781 172 149 129
0.113958545 -0.1594801 -0.17127092 171 150 127
0.1249947 -0.1604612 -0.1722946 168 146 125
0.14006424 -0.16600977 -0.1782144 166 143 120
-0.11871262 -0.15701838 -0.15569627 166 145 123
-0.109144 -0.1570254 -0.15567747 164 141 120
-0.09950606 -0.15692334 -0.1555508 159 134 110
-0.090062134 -0.15713584 -0.15573515 171 145 124
-0.080137625 -0.15646015 -0.15504143 162 136 114
-0.06998195 -0.15508585 -0.15365739 167 142 121
-0.060037836 -0.15381832 -0.15237935 169 143 123
-0.050054513 -0.15195335 -0.1505114 167 141 123
-0.04046313 -0.15069489 -0.14924327 161 138 115
-0.031436566 -0.15143168 -0.14994632 162 139 118
-0.022180393 -0.15119466 -0.14968744 161 138 115
-0.012910005 -0.15041919 -0.14889695 167 144 122
-0.0037737407 -0.15148498 -0.1499245 163 140 119
0.005520888 -0.1532395 -0.15163155 166 143 122
0.014792014 -0.15266486 -0.15103932 166 144 123
0.023980746 -0.15202376 -0.15038171 168 146 125
0.033384763 -0.15269175 -0.15101585 169 145 124
0.043523487 -0.15563868 -0.15389775 169 147 128
0.05359883 -0.15736577 -0.1555756 166 145 123
0.06355713 -0.15829109 -0.15646227 168 146 125
0.073378794 -0.15868683 -0.15682653 164 143 122
0.08275642 -0.15815905 -0.15628026 167 144 122
0.09228125 -0.15798974 -0.1560875 167 143 124
0.102562 -0.15900697 -0.15706404 165 144 122
0.112667605 -0.15960668 -0.1576289 163 142 118
0.12404185 -0.16174313 -0.15970737 167 143 122
-0.10924386 -0.1586638 -0.14499344 158 136 114
-0.09996097 -0.15849447 -0.14481509 158 132 112
-0.09013383 -0.15734096 -0.1437407 159 135 116
-0.08016974 -0.15565905 -0.14218566 163 137 118
-0.070083044 -0.15327787 -0.13999468 162 136 118
-0.06054824 -0.1515818 -0.13842788 163 136 118
-0.051533297 -0.15082909 -0.13771996 163 137 119
-0.04273765 -0.15053971 -0.13743377 162 136 118
-0.03407996 -0.15071264 -0.13756816 160 136 117
-0.025485046 -0.15138237 -0.1381543 157 135 116
-0.016859682 -0.15249023 -0.1391386 161 139 119
-0.008074968 -0.15296528 -0.13954726 164 142 123
0.00075664796 -0.15262589 -0.13921553 165 142 122
0.009581852 -0.15278673 -0.1393385 166 144 124
0.01842961 -0.15298365 -0.1394942 162 140 120
0.027211064 -0.15270078 -0.13921393 163 139 118
0.03598108 -0.15250972 -0.13901718 162 140 119
0.04455832 -0.15175484 -0.13830844 160 138 118
0.053352464 -0.1518506 -0.13837232 162 140 120
0.06278392 -0.15344751 -0.13979904 164 140 121
0.0723228 -0.15488067 -0.14107662 159 135 116
0.08231634 -0.15685372 -0.14284375 164 140 122
0.09315522 -0.15986687 -0.1455541 157 136 118
0.103621386 -0.16176882 -0.14725538 159 137 118
0.1143154 -0.1636807 -0.14896505 157 136 114
0.12827946 -0.16956565 -0.15427755 160 136 117
-0.11160666 -0.1634886 -0.13794753 156 133 109
-0.101799294 -0.16219635 -0.1368388 155 133 112
-0.09156424 -0.1599071 -0.13489304 155 133 115
-0.081501715 -0.15745896 -0.13281451 153 129 110
-0.07141207 -0.15436323 -0.13019295 159 135 118
-0.062490597 -0.15329115 -0.12927109 157 131 113
-0.054067794 -0.15329695 -0.12925422 161 135 117
-0.045696378 -0.15347613 -0.12938285 157 133 115
-0.037459545 -0.15429436 -0.13004759 161 137 120
-0.029175559 -0.15534446 -0.13090663 154 130 111
-0.020825777 -0.15678024 -0.13208885 155 133 115
-0.0123007465 -0.15799148 -0.13308237 156 134 115
-0.0036258942 -0.15834153 -0.13335347 154 134 116
0.005066025 -0.15811816 -0.13314377 158 138 119
0.013644936 -0.15694496 -0.132138 157 137 119
0.02198717 -0.15505472 -0.13053165 158 136 119
0.030280964 -0.1539616 -0.12959376 158 139 119
0.03842638 -0.15276615 -0.12857047 158 137 117
0.04634327 -0.1512671 -0.1272932 166 144 125
0.054460295 -0.15076171 -0.12684852 161 139 121
0.06326433 -0.1520071 -0.12786996 157 135 115
0.07346773 -0.15588044 -0.13109109 161 140 120
0.084686294 -0.16084881 -0.13522768 157 136 114
0.09608601 -0.16519326 -0.1388407 161 140 119
0.1067336 -0.16763057 -0.14085668 155 133 111
0.11664487 -0.16863507 -0.1416733 154 132 113
