ply
format ascii 1.0
element vertex 494
property float x
property float y
property float z
property uchar red
property uchar green
property uchar blue
element face 0
property list uchar int vertex_indices
end_header
-0.25044078 -0.0399094 -0.47564974 213 184 159
-0.23697805 -0.041118048 -0.4897342 195 167 146
-0.22720551 -0.043233756 -0.5148892 101 81 73
-0.21873835 -0.046063863 -0.5487052 163 139 124
-0.19613741 -0.046325024 -0.551034 167 142 129
-0.17381476 -0.046712197 -0.55489236 121 106 96
-0.10836917 -0.03414282 -0.40096557 170 144 128
-0.09067391 -0.03398432 -0.3984124 159 134 112
-0.073748216 -0.034070604 -0.39883864 158 132 111
-0.056947265 -0.03425131 -0.40040803 159 135 114
-0.03995705 -0.034388658 -0.40144753 155 132 111
-0.022843871 -0.034479808 -0.40192565 150 127 108
-0.005680649 -0.034529142 -0.40189785 148 125 101
0.011488325 -0.034596592 -0.40208784 147 124 102
0.028679242 -0.03466841 -0.40233022 145 121 100
0.045876373 -0.034728356 -0.40242895 142 120 98
0.063148074 -0.034822352 -0.40293574 140 118 96
0.080469616 -0.03491839 -0.403465 134 112 92
0.097733855 -0.034978542 -0.40356383 141 117 96
0.115125075 -0.03507288 -0.40407047 137 115 94
0.13242745 -0.035133142 -0.40416905 130 109 89
0.1496653 -0.035176475 -0.4040661 127 105 87
0.16669384 -0.035178695 -0.403475 124 104 84
0.18402712 -0.035245914 -0.40365672 121 101 83
0.20173937 -0.0353742 -0.4045607 122 102 82
0.2210456 -0.035738446 -0.40825197 117 95 77
-0.24288689 -0.058495153 -0.47105706 210 182 157
-0.23270014 -0.06121525 -0.4928647 187 160 144
-0.22627056 -0.06554897 -0.5278525 111 91 83
-0.20702347 -0.06680567 -0.53756654 169 143 130
-0.18472324 -0.06727884 -0.5408504 191 164 150
-0.13395178 -0.056206588 -0.44979164 160 137 134
-0.10027537 -0.04950088 -0.39457068 159 133 113
-0.08344922 -0.04976059 -0.39625928 159 135 116
-0.066346146 -0.04992746 -0.397188 156 130 110
-0.049211252 -0.050145485 -0.39853087 154 130 107
-0.03191423 -0.050298247 -0.39934036 154 129 107
-0.01453457 -0.050417803 -0.3998785 150 127 105
0.0028924 -0.050508298 -0.4001796 146 122 101
0.020354314 -0.050614957 -0.4006112 146 123 102
0.037877504 -0.050749842 -0.4012701 144 121 100
0.055379212 -0.05081251 -0.40134373 138 115 96
0.07292148 -0.050897 -0.40159354 135 113 92
0.09054015 -0.05101045 -0.4020761 138 116 97
0.10818066 -0.05111371 -0.40247563 134 112 91
0.12594241 -0.051250495 -0.40314403 133 111 92
0.14358291 -0.05132422 -0.40330386 126 104 85
0.1613087 -0.051419497 -0.40363643 128 108 89
0.17879231 -0.05143828 -0.4033547 124 104 85
0.19645941 -0.05150964 -0.40349495 124 102 82
0.21493612 -0.051767707 -0.40512902 117 97 77
0.23325203 -0.051959794 -0.40623215 120 98 79
-0.25027427 -0.07574003 -0.45614323 38 180 225
-0.23818676 -0.07845374 -0.4723275 0 10 58
-0.23056789 -0.08327392 -0.50133574 204 179 160
-0.22076498 -0.08826189 -0.5313175 88 72 66
-0.2040662 -0.091395915 -0.5499571 129 110 100
-0.15455483 -0.07890119 -0.47345784 150 125 119
-0.11565074 -0.06858667 -0.41034418 147 126 116
-0.09357524 -0.06599518 -0.39425528 155 132 111
-0.07614215 -0.06613052 -0.39474535 153 130 108
-0.05875414 -0.06636655 -0.39584526 156 130 110
-0.041295085 -0.06664904 -0.39722463 153 130 108
-0.02366966 -0.06681783 -0.3979133 151 127 106
-0.005979481 -0.066973306 -0.39852038 146 122 101
0.011769436 -0.06714301 -0.39921233 144 122 101
0.02957031 -0.06728643 -0.3997442 142 120 100
0.04740804 -0.067412354 -0.40016967 139 118 98
0.06529343 -0.06754608 -0.40064147 137 115 96
0.08322569 -0.0676821 -0.40112624 135 113 94
0.10121685 -0.067827135 -0.40166447 131 109 92
0.11924781 -0.06796656 -0.40216792 134 110 91
0.13737224 -0.06812872 -0.4028071 127 105 88
0.15543622 -0.068239555 -0.403137 126 104 87
0.1734889 -0.06833393 -0.40336767 122 102 84
0.19146058 -0.068392076 -0.40338072 119 99 79
0.20984922 -0.0685828 -0.40418777 116 96 75
0.22911751 -0.06901169 -0.4064185 117 97 79
-0.2552614 -0.09950205 -0.47458524 219 193 171
-0.23836754 -0.10152552 -0.48400214 208 180 158
-0.2164894 -0.101640716 -0.48422113 191 164 144
-0.19345105 -0.1011688 -0.48161572 169 145 132
-0.16136357 -0.09528981 -0.453025 166 141 130
-0.13970345 -0.09462891 -0.44953713 164 139 125
-0.105077274 -0.08357076 -0.39614916 157 133 112
-0.08662781 -0.08318996 -0.39404896 157 133 110
-0.068759255 -0.08327538 -0.39418635 153 129 108
-0.051023092 -0.08359792 -0.3954593 149 126 105
-0.033122648 -0.0838059 -0.39618212 147 126 103
-0.01515872 -0.08403885 -0.39702335 146 122 101
0.0028824536 -0.08422663 -0.39764747 144 123 101
0.020974474 -0.08438225 -0.39811707 142 120 99
0.03911469 -0.0845449 -0.3986195 139 117 98
0.057328183 -0.08474456 -0.3992978 140 118 98
0.0755669 -0.08490152 -0.39977157 134 112 93
0.093909435 -0.08511079 -0.40049383 132 110 92
0.11226437 -0.08527864 -0.40101793 131 107 90
0.1307141 -0.08547551 -0.4016793 129 107 88
0.14916018 -0.085635215 -0.40216306 127 105 87
0.16764829 -0.08579289 -0.4026365 120 101 80
0.18613192 -0.085928075 -0.40300238 120 100 82
0.20476052 -0.08610866 -0.40358323 116 96 78
0.22438514 -0.08664711 -0.4058597 114 94 77
0.24262054 -0.08662407 -0.405473 116 96 80
-0.25047213 -0.11164664 -0.43731606 23 14 16
-0.23002915 -0.111633025 -0.43700358 12 7 6
-0.20883006 -0.111207455 -0.43506554 124 100 81
-0.18897031 -0.1114582 -0.4357974 138 113 92
-0.16813564 -0.111118585 -0.43420118 127 105 89
-0.14982109 -0.11254082 -0.43954802 153 129 110
-0.13429222 -0.11679 -0.4560192 123 102 86
-0.097275 -0.100666285 -0.39230242 154 130 109
-0.07929181 -0.10099671 -0.3933707 149 126 105
-0.061181314 -0.10128554 -0.39427412 144 123 101
-0.04301072 -0.10163585 -0.39541796 145 123 103
-0.024696585 -0.10184482 -0.39600557 144 122 101
-0.006324986 -0.102045946 -0.3965617 140 120 98
0.012094351 -0.102195024 -0.39691305 140 118 96
0.030544313 -0.10232987 -0.39720815 137 115 93
0.04906425 -0.102547914 -0.39782873 133 111 90
0.06765884 -0.10278798 -0.39853477 132 110 90
0.086321466 -0.10302831 -0.39924097 130 108 89
0.10511617 -0.103330925 -0.40018988 129 107 88
0.12385952 -0.103516676 -0.40068093 127 105 85
0.1426672 -0.1037143 -0.40121773 124 102 84
0.16161937 -0.10397061 -0.401983 119 97 80
0.18044852 -0.10411516 -0.40231138 117 97 78
0.19943036 -0.104321696 -0.402881 116 97 76
0.21861522 -0.10459814 -0.40372223 112 93 75
0.2378779 -0.10487359 -0.4045586 106 89 70
-0.22385705 -0.12079524 -0.39849707 192 168 146
-0.20632079 -0.12164308 -0.40110716 154 131 108
-0.18706103 -0.12154513 -0.4005741 155 132 107
-0.16796036 -0.12152626 -0.400304 157 133 112
-0.14895904 -0.121568635 -0.4002373 163 142 122
-0.12929566 -0.12099448 -0.3981267 162 139 116
-0.10961164 -0.12018197 -0.3952285 165 141 120
-0.090222515 -0.11939651 -0.39242285 147 124 103
-0.07178189 -0.11973827 -0.39335126 143 119 98
-0.053250592 -0.120080285 -0.39427957 142 120 98
-0.034607682 -0.12035057 -0.39496967 139 118 96
-0.015910774 -0.12072633 -0.39600766 137 115 93
0.0028822015 -0.12089173 -0.39634964 137 118 95
0.021715796 -0.12108895 -0.39679632 133 112 90
0.04059455 -0.12128717 -0.3972458 133 112 90
0.0594841 -0.12141631 -0.39746693 132 110 90
0.078492105 -0.1216912 -0.3981683 126 105 83
0.09762187 -0.1220314 -0.3990841 125 103 85
0.116774656 -0.122302905 -0.39977267 124 102 85
0.13599597 -0.12257513 -0.40046293 123 101 83
0.15519258 -0.12277497 -0.40091428 119 99 80
0.17453833 -0.123047285 -0.4016035 113 93 75
0.19383897 -0.123248644 -0.40205875 114 96 77
0.21342991 -0.12359027 -0.4029742 113 93 74
0.23370646 -0.12424557 -0.40491846 108 90 73
0.25349146 -0.124571234 -0.4057791 111 90 74
-0.23306197 -0.1372999 -0.38918036 194 170 140
-0.21618284 -0.13862006 -0.3927631 131 107 88
-0.19731641 -0.1388012 -0.3930972 163 138 115
-0.17801836 -0.13867639 -0.39255956 157 133 112
-0.15899803 -0.13874827 -0.39258236 150 129 107
-0.1401182 -0.13896275 -0.3930108 146 125 103
-0.121046625 -0.13900937 -0.39296147 144 121 100
-0.10181129 -0.13883154 -0.39227414 142 121 99
-0.08292911 -0.13913321 -0.39294985 139 118 96
-0.0639405 -0.1393525 -0.3933909 138 116 97
-0.04493406 -0.13965663 -0.39407235 138 118 96
-0.025866188 -0.1400003 -0.39486536 132 113 90
-0.0067161876 -0.14029291 -0.39551282 133 114 92
0.012489924 -0.14048173 -0.39586538 131 111 91
0.03176256 -0.14080122 -0.3965879 129 109 86
0.05104058 -0.1409367 -0.39678854 128 109 87
0.07049569 -0.14138027 -0.39786112 125 105 85
0.08991709 -0.14160487 -0.39831313 124 104 86
0.109449126 -0.14191197 -0.39899802 122 102 83
0.12904683 -0.14221542 -0.39967197 116 95 76
0.14871107 -0.14251764 -0.40034175 115 95 75
0.16844568 -0.14282227 -0.4010177 111 92 75
0.18824118 -0.14312148 -0.4016777 109 91 73
0.20798929 -0.14334296 -0.40211776 110 92 73
0.2280541 -0.14373401 -0.40303564 104 86 67
0.24753079 -0.14373411 -0.40285054 101 83 66
-0.22927433 -0.1578292 -0.38982272 194 170 142
-0.21084952 -0.15857013 -0.39149663 166 143 118
-0.1919385 -0.15905108 -0.39252442 159 135 112
-0.17245841 -0.15910761 -0.39249933 151 128 106
-0.15297835 -0.15916415 -0.39247423 147 125 103
-0.13357595 -0.15931258 -0.39267668 141 119 97
-0.11415087 -0.15946105 -0.39287913 139 118 94
-0.09459311 -0.15942572 -0.39262646 139 118 96
-0.075161465 -0.1596082 -0.3929128 133 112 92
-0.055707272 -0.15981491 -0.39325875 132 111 89
-0.036246512 -0.16015498 -0.39393404 131 112 89
-0.016714413 -0.16048071 -0.39457324 129 110 88
0.0028857333 -0.16090602 -0.3954578 126 107 85
0.02256354 -0.16123946 -0.39611483 128 108 88
0.042308617 -0.1615702 -0.39676464 123 103 83
0.062123198 -0.1619069 -0.39742857 122 102 83
0.08200507 -0.16224094 -0.39808533 117 99 78
0.10195492 -0.16257516 -0.398742 119 100 80
0.121956006 -0.16288729 -0.3993437 115 95 75
0.14197773 -0.16315185 -0.39982772 115 95 78
0.16219965 -0.16356601 -0.4006795 110 92 73
0.1823957 -0.16387935 -0.40128252 107 89 70
0.20251065 -0.16407734 -0.40160134 105 87 70
0.2225948 -0.16422774 -0.40180293 105 87 70
0.2434929 -0.16490975 -0.40331045 102 83 65
0.2642796 -0.16542809 -0.4044147 102 84 66
-0.24138595 -0.17663288 -0.38457796 212 185 157
-0.22442488 -0.17872469 -0.3889993 149 126 104
-0.20592776 -0.17987907 -0.39136976 163 140 117
-0.18627216 -0.1801565 -0.39182386 151 128 107
-0.16628328 -0.1801283 -0.39161056 144 123 99
-0.14644319 -0.18025845 -0.39174286 141 120 98
-0.12680225 -0.18069318 -0.39253917 134 112 90
-0.10686976 -0.18077935 -0.39257511 135 114 92
-0.08700503 -0.18101853 -0.3929444 130 108 88
-0.06704088 -0.18109922 -0.39296815 131 109 89
-0.047139913 -0.18144064 -0.39355952 126 107 85
-0.027179394 -0.18180496 -0.3942003 126 108 85
-0.0071490654 -0.18212451 -0.39474314 123 104 83
0.01295359 -0.18264434 -0.39572108 121 102 79
0.033136938 -0.18304515 -0.39643952 121 101 81
0.053379517 -0.1833892 -0.39703405 121 101 81
0.07369399 -0.18375455 -0.39767435 119 100 79
0.09407645 -0.1841201 -0.3983146 116 98 79
0.11446192 -0.18438184 -0.398729 110 91 72
0.13489483 -0.18464708 -0.39915064 111 91 74
0.15550946 -0.18507317 -0.39992076 107 89 70
0.17616673 -0.18545905 -0.40060312 106 88 69
0.19673055 -0.1856898 -0.40094876 103 87 69
0.21743765 -0.18601009 -0.40148807 100 84 66
0.23839425 -0.18647943 -0.4023497 100 82 63
0.25942245 -0.18693542 -0.40318176 101 82 65
-0.23803161 -0.19921619 -0.38569677 205 179 149
-0.2209971 -0.20203237 -0.39102474 174 149 124
-0.20091896 -0.2023643 -0.391528 160 137 112
-0.18050598 -0.20238502 -0.39142725 146 124 103
-0.1599906 -0.20226729 -0.39105803 141 119 97
-0.13978943 -0.20255023 -0.39146575 135 113 91
-0.119609326 -0.20294526 -0.39209035 134 112 93
-0.09935817 -0.20333429 -0.39270285 129 109 89
-0.07900134 -0.2036239 -0.39312238 127 107 87
-0.05859613 -0.20390743 -0.3935298 127 107 87
-0.03814558 -0.2041911 -0.3939372 121 102 81
-0.017659416 -0.20458701 -0.3945614 125 106 85
0.0028970107 -0.20513955 -0.39548793 122 102 82
0.023540083 -0.20557989 -0.396197 119 99 80
0.04425574 -0.20600042 -0.39686716 119 99 79
0.06500437 -0.20629553 -0.39729467 114 97 76
0.085744716 -0.2064573 -0.39746433 112 92 74
0.106568776 -0.20674096 -0.39786914 111 92 73
0.12750895 -0.20713928 -0.39849484 107 90 70
0.14851658 -0.20753671 -0.3991184 102 84 67
0.16965601 -0.20801207 -0.3998917 103 85 68
0.19063222 -0.20821972 -0.40014845 102 84 67
0.21173687 -0.20852408 -0.40059134 98 80 63
0.23295343 -0.20888454 -0.40114194 97 81 63
0.2555824 -0.21035077 -0.403821 98 80 62
0.27813318 -0.21154477 -0.40597415 96 79 64
-0.2522665 -0.22052877 -0.3825856 154 129 102
-0.23589584 -0.22440393 -0.38919276 195 168 143
-0.21609494 -0.2254599 -0.39089635 165 141 120
-0.19560575 -0.2259388 -0.39159626 149 125 104
-0.17446198 -0.2256762 -0.391008 143 119 100
-0.1535216 -0.22562276 -0.39078322 134 113 91
-0.13285637 -0.22599874 -0.39130384 130 108 88
-0.11221842 -0.22654736 -0.39212355 127 107 88
-0.091406025 -0.22688958 -0.39258477 125 105 85
-0.07049492 -0.2270832 -0.392788 122 102 82
-0.049556788 -0.22726615 -0.3929726 118 99 78
-0.028634883 -0.22775689 -0.39369026 118 100 79
-0.007634785 -0.22829604 -0.3944913 116 97 77
0.0134515185 -0.22879298 -0.3952187 112 95 72
0.034626756 -0.22934315 -0.39603773 113 94 73
0.055826396 -0.22962278 -0.3963881 111 93 74
0.077043034 -0.2298328 -0.3966178 110 92 73
0.09832861 -0.2301393 -0.39701417 105 87 68
0.119759 -0.23063615 -0.39773923 104 86 67
0.1411932 -0.23100825 -0.39824823 101 83 64
0.16274774 -0.23146941 -0.3989107 99 81 62
0.18420464 -0.23171613 -0.39920247 100 82 65
0.20578411 -0.23206203 -0.3996652 96 80 64
0.22757255 -0.23256697 -0.400402 98 81 64
0.25031388 -0.23388124 -0.4025343 96 78 61
0.27307716 -0.23501678 -0.40435696 93 77 62
-0.25196645 -0.24824353 -0.38814372 193 168 143
-0.22933498 -0.24681014 -0.3857755 90 74 55
-0.20956433 -0.24844657 -0.38821384 154 131 110
-0.1903077 -0.25111395 -0.39226383 142 120 99
-0.16893123 -0.25130826 -0.39244267 135 113 93
-0.14757198 -0.2515703 -0.39272735 130 108 89
-0.12601168 -0.25150144 -0.39249447 125 104 84
-0.10450012 -0.2514952 -0.39235958 123 103 83
-0.08303982 -0.25160792 -0.39241064 122 102 84
-0.061588682 -0.25179315 -0.39257485 118 100 81
-0.04015364 -0.25221077 -0.3931018 115 97 78
-0.018655568 -0.25260058 -0.39358497 113 96 76
0.0029002712 -0.25312895 -0.394284 108 90 71
0.024550853 -0.25381047 -0.39522147 109 91 72
0.04628722 -0.25438118 -0.3959855 107 89 70
0.0680955 -0.2548959 -0.39666182 104 86 67
0.089966714 -0.25536984 -0.39727408 105 87 69
0.111902185 -0.2558301 -0.39786464 102 84 67
0.13383375 -0.2561536 -0.39824185 101 83 66
0.15578198 -0.25643155 -0.39854786 99 81 64
0.1778844 -0.25687835 -0.39911643 99 81 64
0.19988738 -0.2571141 -0.3993563 96 77 63
0.22231042 -0.2578005 -0.40029687 94 78 60
0.24528131 -0.2589507 -0.40195796 92 73 57
0.2693409 -0.26097175 -0.40497154 94 76 59
0.29481977 -0.26396 -0.40948597 92 73 59
-0.26963416 -0.27405295 -0.38825944 110 91 69
-0.24713065 -0.27334133 -0.38713253 202 175 149
-0.22705503 -0.27541068 -0.38994855 184 157 133
-0.20494305 -0.27518806 -0.38951483 117 98 78
-0.18556577 -0.27898914 -0.3947818 138 115 94
-0.16355936 -0.27933744 -0.39515543 131 109 90
-0.14114664 -0.2789758 -0.3945236 131 109 91
-0.11871471 -0.27841038 -0.39360362 125 105 84
-0.09652527 -0.278252 -0.3932602 120 100 81
-0.0744197 -0.27827352 -0.3931715 123 103 84
-0.052417576 -0.2788067 -0.39380634 119 101 80
-0.030294286 -0.27891517 -0.39384037 114 96 77
-0.008172033 -0.27930012 -0.39426515 113 96 75
0.014013828 -0.27993342 -0.3950405 115 97 78
0.036293175 -0.2805884 -0.39584598 112 94 75
0.05868977 -0.2813542 -0.39680746 110 93 72
0.08111723 -0.28184065 -0.39737403 114 94 75
0.10366437 -0.28246984 -0.39814165 111 91 71
0.12624542 -0.28297436 -0.39873287 110 90 72
0.14863703 -0.28298753 -0.39863083 105 86 67
0.17116146 -0.2832331 -0.39885643 105 87 70
0.19397728 -0.2838613 -0.3996212 104 86 69
0.21689406 -0.28450456 -0.4004067 104 86 69
0.2408944 -0.28632122 -0.40284452 105 87 68
0.26551986 -0.28851354 -0.40580985 105 87 66
0.29024646 -0.29047084 -0.4084425 103 85 68
-0.26630408 -0.30182484 -0.38898146 196 168 141
-0.24615853 -0.30470717 -0.39258507 201 175 147
-0.22511977 -0.30694896 -0.39536095 193 166 140
-0.20270385 -0.30760148 -0.3960871 185 159 131
-0.18023264 -0.30830905 -0.39688382 178 151 125
-0.15707925 -0.30787212 -0.396206 170 145 119
-0.13375458 -0.30687228 -0.39480382 167 142 117
-0.11086566 -0.30663422 -0.39438298 170 145 120
-0.08809851 -0.306661 -0.3943031 166 143 118
-0.06525639 -0.30630988 -0.39373714 164 141 116
-0.04253278 -0.30636275 -0.39369106 165 143 116
-0.019809451 -0.3063901 -0.3936122 166 143 118
0.0029087483 -0.30648035 -0.39361417 164 141 116
0.025663452 -0.30696225 -0.39411935 165 142 117
0.048578646 -0.3080664 -0.39542356 155 134 110
0.071540296 -0.30870697 -0.39613166 149 128 104
0.094452985 -0.30890992 -0.39627752 135 113 91
0.11746799 -0.30932805 -0.39669946 122 102 82
0.14044529 -0.30954868 -0.3968677 116 96 76
0.16312136 -0.30915776 -0.3962514 115 95 75
0.18639745 -0.30987236 -0.3970531 112 92 75
0.209799 -0.31063014 -0.39790967 111 93 74
0.23272437 -0.31061888 -0.3977801 109 91 71
0.25848222 -0.31404823 -0.4020587 102 84 66
0.28780264 -0.3208798 -0.4106923 106 88 70
0.32119983 -0.33086598 -0.42336023 114 95 74
-0.2555093 -0.29614735 -0.3485209 203 176 149
-0.25588828 -0.32260737 -0.37956837 201 174 148
-0.2363007 -0.32667646 -0.3842507 197 171 144
-0.21474953 -0.32860878 -0.3864168 190 164 136
-0.1913292 -0.3277981 -0.38535565 188 161 133
-0.16899109 -0.32884672 -0.38648117 186 159 133
-0.14517212 -0.32688272 -0.384065 179 155 126
-0.12178008 -0.3252981 -0.38209596 176 151 125
-0.09957567 -0.32684085 -0.38380185 176 151 126
-0.0772332 -0.3286744 -0.3858483 175 152 125
-0.054771457 -0.331279 -0.3887989 178 153 128
-0.031936727 -0.3336952 -0.39152664 173 148 122
-0.008703535 -0.33343247 -0.39110932 171 146 120
0.0145852165 -0.33549774 -0.39342317 163 141 114
0.038333934 -0.33915696 -0.3976051 142 121 98
0.062256385 -0.34102914 -0.39968944 119 99 79
0.085304394 -0.3384515 -0.3965569 114 97 76
0.10896335 -0.33890995 -0.39698377 110 90 72
0.13284127 -0.33978757 -0.39790142 99 81 62
0.15575854 -0.33834285 -0.39609873 99 81 63
0.17824318 -0.33648112 -0.39380884 97 79 60
0.2040882 -0.3406528 -0.3985822 97 79 61
0.23412955 -0.35022625 -0.40967378 95 77 58
0.27304706 -0.3699981 -0.43268952 93 77 59
0.30508733 -0.37789968 -0.4418101 93 75 58
0.33021426 -0.3767059 -0.44029146 96 79 61
-0.12718998 -0.16370118 -0.1764097 232 209 180
-0.11534563 -0.16214652 -0.17468731 232 207 180
-0.10468901 -0.16209434 -0.1745843 232 207 179
-0.09413886 -0.16220538 -0.1746571 230 206 175
-0.08309937 -0.16139412 -0.1737369 230 206 176
-0.07152809 -0.15916395 -0.17129001 229 206 173
-0.05959353 -0.15522517 -0.16700591 229 205 174
-0.04833301 -0.15175556 -0.16322882 229 205 174
-0.03796085 -0.14995904 -0.16125311 228 204 175
-0.027969098 -0.1489011 -0.1600725 228 204 173
-0.01827021 -0.14905515 -0.16019526 227 203 170
-0.008549268 -0.14911428 -0.16021596 223 199 166
0.0011771353 -0.14934577 -0.16042179 206 182 151
0.010906622 -0.1492569 -0.16028345 185 160 134
0.020726843 -0.1499284 -0.16096158 173 150 125
0.030597817 -0.15043533 -0.16146268 169 146 123
0.041143864 -0.15320115 -0.16438758 167 144 120
0.052493863 -0.15728691 -0.16872698 163 140 117
0.06393416 -0.16027312 -0.1718847 163 140 116
0.07506291 -0.16176435 -0.17343771 161 140 116
0.08552725 -0.16165113 -0.17326999 160 136 115
0.095808335 -0.1612635 -0.17280824 156 132 111
0.10641454 -0.16144748 -0.17295916 158 134 111
0.117164195 -0.1618004 -0.17329094 158 135 114
0.12934645 -0.16390058 -0.17549352 154 133 109
0.14308868 -0.1674975 -0.1792972 151 130 106
-0.12194718 -0.15937494 -0.15778354 233 208 180
-0.11027632 -0.1568335 -0.15522869 233 210 181
-0.09940293 -0.15502912 -0.15340406 233 209 180
-0.08950564 -0.15450403 -0.15284511 232 208 179
-0.07960753 -0.15384518 -0.15215427 231 207 178
-0.06978081 -0.15315537 -0.15143317 230 206 177
-0.060047727 -0.15247615 -0.15072292 229 205 174
-0.050523825 -0.1521586 -0.15037023 231 207 176
-0.04107236 -0.15194924 -0.15012452 227 203 170
-0.031565167 -0.15133478 -0.14947906 228 204 171
-0.02221925 -0.15127 -0.14937639 227 203 172
-0.012928667 -0.15171646 -0.14977813 225 203 171
-0.0035889668 -0.15229197 -0.15030694 212 188 155
0.0057878504 -0.15206045 -0.15003969 191 166 140
0.015135821 -0.15186182 -0.149805 172 152 126
0.024499558 -0.15193255 -0.14983588 165 144 120
0.033970423 -0.15245552 -0.15031235 163 140 117
0.043760687 -0.15387706 -0.15167366 162 138 117
0.05352276 -0.15472193 -0.15246636 161 138 115
0.06323263 -0.15519309 -0.15289073 161 139 116
0.0730477 -0.15577039 -0.15341932 158 137 115
0.08268194 -0.15588234 -0.15348974 156 135 111
0.09260307 -0.15645736 -0.15401565 159 135 116
0.10316393 -0.1579003 -0.15539487 154 130 109
0.113538705 -0.158842 -0.15628052 153 131 109
0.12566406 -0.16187549 -0.15922186 153 129 108
-0.10610838 -0.15250157 -0.1389845 233 209 180
-0.09616398 -0.1509451 -0.13753332 234 209 181
-0.087067865 -0.15052164 -0.13711345 232 207 179
-0.07825269 -0.15053262 -0.13708885 233 208 180
-0.06954243 -0.1507654 -0.13726589 232 208 179
-0.060879443 -0.15117487 -0.13760343 229 205 174
-0.052368548 -0.15215309 -0.13845758 231 207 176
-0.043745544 -0.15313263 -0.1393125 231 207 176
-0.03483969 -0.15336888 -0.1394919 228 205 176
-0.0259385 -0.15377837 -0.13982855 227 203 172
-0.017062554 -0.15482247 -0.14074105 226 203 174
-0.008063178 -0.1558017 -0.1415942 218 193 164
0.0010465874 -0.15649427 -0.14218684 195 172 143
0.01013407 -0.15565427 -0.14138907 179 154 127
0.019126734 -0.15487249 -0.14064452 164 141 120
0.028031101 -0.15412827 -0.13993436 161 139 118
0.036938034 -0.15376875 -0.13957325 159 136 113
0.045827843 -0.15350309 -0.13929735 160 138 116
0.054789174 -0.15353134 -0.13928783 155 132 111
0.06370949 -0.15346105 -0.13918908 157 135 114
0.07248046 -0.15310183 -0.13882875 156 132 110
0.08127649 -0.15287368 -0.13858727 156 132 113
0.09063537 -0.1536414 -0.1392471 157 135 113
0.100627325 -0.15524408 -0.14066204 154 133 111
0.11119429 -0.15739393 -0.14257114 149 126 103
0.12575974 -0.16440493 -0.14887507 147 127 101
-0.104075804 -0.15099868 -0.12694986 232 207 174
-0.09470211 -0.14950061 -0.12566236 233 209 180
-0.08612232 -0.14907098 -0.12527123 232 208 180
-0.07797771 -0.14937085 -0.12549172 233 209 180
-0.069914505 -0.14990963 -0.12591228 232 207 180
-0.0618313 -0.15053965 -0.12640907 230 206 179
-0.053819433 -0.15155877 -0.1272315 232 207 179
-0.045693893 -0.15257128 -0.12804794 230 206 177
-0.03744204 -0.15352099 -0.12881143 230 206 177
-0.029131891 -0.15471022 -0.12977499 228 204 175
-0.020778272 -0.15655065 -0.13128291 226 202 173
-0.012198582 -0.15810087 -0.13254732 221 197 168
-0.0034494 -0.1597162 -0.13386555 204 181 153
0.0054314984 -0.15998015 -0.13405326 181 158 133
0.0140736345 -0.15730514 -0.13178432 166 145 123
0.022657957 -0.15630186 -0.1309135 162 140 120
0.031032074 -0.15482841 -0.1296503 159 138 116
0.039447132 -0.15416297 -0.12906261 158 137 115
0.047842704 -0.15368125 -0.1286286 157 135 113
0.056155063 -0.15312774 -0.12813488 154 132 111
0.06429502 -0.15232123 -0.12743023 153 130 109
0.07239747 -0.1516296 -0.12682179 155 131 109
0.08053516 -0.15115231 -0.12639244 152 128 107
0.08928212 -0.15179607 -0.12689826 153 129 110
0.09864932 -0.15328859 -0.1281115 148 125 103
0.10775916 -0.15418376 -0.12882619 146 125 101
