ply
format ascii 1.0
element vertex 494
property float x
property float y
property float z
property uchar red
property uchar green
property uchar blue
element face 0
property list uchar int vertex_indices
end_header
-12.491429 8.47289 -21.017004 141 152 165
-11.518681 8.476012 -21.04698 152 163 176
-10.530359 8.467485 -21.04837 155 166 179
-9.549822 8.464783 -21.064053 157 165 179
-8.563359 8.456119 -21.065062 163 172 186
-7.58315 8.453013 -21.079737 162 173 187
-6.608216 8.456676 -21.111103 161 171 185
-5.6257873 8.451066 -21.119608 166 177 190
-4.643731 8.444912 -21.12675 176 187 200
-3.6645539 8.443701 -21.146109 175 186 199
-2.6845376 8.440872 -21.161467 174 185 198
-1.7046585 8.4386015 -21.17821 170 181 194
-0.7247754 8.437558 -21.197996 166 177 190
0.2556602 8.441205 -21.22945 156 167 180
1.238518 8.451195 -21.276714 154 164 178
2.2215416 8.450866 -21.29835 155 164 178
3.2021062 8.442658 -21.30036 145 154 168
4.1825476 8.436754 -21.308086 141 150 164
5.1640415 8.43377 -21.323093 137 146 160
6.1341376 8.415207 -21.299137 130 139 153
7.1115026 8.409611 -21.30756 127 136 150
8.0849085 8.400579 -21.307358 130 138 152
9.059963 8.394444 -21.314388 129 138 152
10.032825 8.387137 -21.318459 132 141 155
10.994514 8.372085 -21.303032 130 139 153
11.96656 8.366335 -21.310951 135 144 158
-11.9994545 7.4885406 -20.995869 134 145 157
-11.027408 7.491481 -21.02717 152 163 176
-10.046475 7.488777 -21.04286 165 174 186
-9.058847 7.480436 -21.042902 165 173 187
-8.078645 7.4777346 -21.058578 161 171 184
-7.100386 7.477124 -21.080072 148 157 169
-6.1184034 7.472535 -21.090504 144 153 165
-5.1380377 7.46963 -21.105612 163 175 186
-4.154785 7.461299 -21.105583 167 177 191
-3.1753118 7.4585996 -21.121248 173 183 195
-2.1958394 7.4559 -21.136915 150 159 171
-1.2172288 7.4588237 -21.168324 167 176 188
-0.23717827 7.462565 -21.20206 161 170 183
0.74436903 7.4646573 -21.231209 159 168 182
1.7265224 7.4640355 -21.252766 151 161 175
2.7097456 7.46486 -21.2784 148 158 172
3.6876009 7.4530106 -21.268375 139 148 160
4.6688714 7.450417 -21.28438 130 138 152
5.6443725 7.4401565 -21.278755 139 148 161
6.6194177 7.4316044 -21.27791 137 146 160
7.598889 7.428905 -21.293575 142 150 164
8.578363 7.426205 -21.309242 148 157 171
9.550676 7.4179068 -21.309038 150 159 171
10.524458 7.411688 -21.314703 152 161 173
11.490926 7.401319 -21.30856 149 158 170
12.505602 7.4210024 -21.387812 149 158 170
-12.48145 6.5042486 -20.94857 135 143 157
-11.516396 6.509809 -20.990461 138 150 161
-10.539295 6.5093145 -21.013165 149 158 168
-9.563991 6.5105243 -21.041307 150 159 171
-8.577432 6.5039077 -21.044544 147 156 168
-7.5964994 6.501204 -21.060234 139 148 160
-6.615568 6.4985003 -21.075924 140 149 161
-5.6340537 6.4951077 -21.089409 142 151 163
-4.650288 6.488193 -21.091618 147 156 168
-3.6700861 6.4854918 -21.107294 169 178 190
-2.6898844 6.48279 -21.122972 165 174 186
-1.711261 6.4863787 -21.158854 167 176 188
-0.7303356 6.485777 -21.181305 169 178 190
0.25118273 6.484466 -21.201492 154 164 176
1.2337309 6.4862785 -21.231756 147 158 171
2.215798 6.4827986 -21.244974 145 156 169
3.1983569 6.480776 -21.262894 151 162 175
4.1778255 6.4736443 -21.264296 158 168 181
5.154299 6.464407 -21.25885 154 165 178
6.127331 6.4535985 -21.248259 154 163 177
7.106802 6.4508986 -21.263926 150 159 171
8.090902 6.451917 -21.29167 149 158 172
9.065749 6.4455 -21.295258 146 155 167
10.042533 6.4410596 -21.305254 148 157 169
11.019859 6.4372487 -21.31729 157 167 181
11.986063 6.4275937 -21.31024 158 169 182
-12.00709 5.52975 -20.95734 159 168 180
-11.045754 5.5368466 -21.00954 149 159 168
-10.066042 5.535512 -21.030369 145 154 166
-9.076952 5.5286245 -21.030466 144 153 165
-8.095291 5.525919 -21.046167 150 161 172
-7.114743 5.5241013 -21.065191 143 152 164
-6.131968 5.520508 -21.077568 146 155 167
-5.1510763 5.51865 -21.09645 144 153 165
-4.1679997 5.5142145 -21.105654 146 155 167
-3.1869855 5.512391 -21.124672 158 168 180
-2.2053251 5.5096855 -21.140373 155 166 177
-1.223748 5.5073833 -21.157595 155 166 179
-0.24213907 5.5084367 -21.187496 163 174 187
0.7408439 5.509889 -21.218943 165 174 188
1.7226416 5.5030212 -21.218922 166 175 189
2.7050312 5.5003138 -21.234634 159 168 182
3.6841044 5.492652 -21.23154 159 170 184
4.6656103 5.48993 -21.247175 155 166 179
5.639484 5.4797416 -21.2344 145 154 168
6.6165304 5.4744062 -21.240042 152 161 175
7.5998874 5.4743385 -21.265755 155 164 178
8.582501 5.4731913 -21.287367 152 161 175
9.560292 5.4689355 -21.29711 166 175 188
10.532608 5.462095 -21.296938 173 182 194
11.503466 5.4552574 -21.296743 171 180 192
12.519587 5.4691024 -21.375889 171 180 192
-12.487355 4.546177 -20.906967 168 179 190
-11.533461 4.5538454 -20.969347 164 175 187
-10.561557 4.555463 -21.004553 165 176 187
-9.577205 4.551885 -21.016342 164 173 183
-8.594814 4.5491776 -21.032055 164 174 184
-7.612599 4.5465784 -21.048256 150 160 170
-6.634912 4.547209 -21.07911 150 161 173
-5.6476436 4.541055 -21.079193 148 159 170
-4.6622334 4.53531 -21.081087 150 160 173
-3.6801717 4.532201 -21.094955 162 175 189
-2.6985114 4.5294952 -21.110655 160 172 187
-1.7162852 4.525214 -21.119162 159 169 183
-0.73468614 4.5206504 -21.126358 151 162 177
0.2466811 4.5245495 -21.172277 152 162 176
1.229089 4.522102 -21.189182 154 163 177
2.2094903 4.5153513 -21.186335 160 169 183
3.1890402 4.509836 -21.189116 142 151 163
4.169971 4.5071325 -21.204805 149 158 172
5.14703 4.5010076 -21.204725 152 161 173
6.12263 4.4948864 -21.204622 187 195 207
7.10728 4.495506 -21.235626 191 198 209
8.093698 4.4963183 -21.267563 160 170 181
9.074963 4.493782 -21.284027 156 165 177
10.048482 4.4877 -21.284042 148 157 169
11.019995 4.4813886 -21.282953 154 162 176
12.041131 4.494503 -21.372177 171 180 193
-12.017867 3.570961 -20.924282 204 212 218
-11.061053 3.5763142 -20.985964 187 196 206
-10.076242 3.572976 -20.998096 185 196 207
-9.0883665 3.5682585 -21.002316 182 193 206
-8.105976 3.565551 -21.018028 157 168 179
-7.128669 3.5654771 -21.048866 147 158 169
-6.1412086 3.560144 -21.049501 160 171 183
-5.1589236 3.557513 -21.065655 183 194 203
-4.1764145 3.5547206 -21.08088 173 184 197
-3.1931586 3.551006 -21.090773 206 216 222
-2.2116344 3.5493057 -21.112305 228 233 238
-1.2292444 3.5465982 -21.128017 237 241 244
-0.24679571 3.542773 -21.137243 195 202 212
0.7351289 3.5393152 -21.148588 209 215 222
1.7165991 3.535757 -21.159334 218 224 229
2.6942277 3.5277483 -21.144121 227 233 240
3.6743753 3.524974 -21.159376 225 231 238
4.657974 3.5248814 -21.190308 229 234 241
5.63478 3.519571 -21.190731 226 230 236
6.6149826 3.5168695 -21.20641 255 254 255
7.6008782 3.516855 -21.237867 254 255 255
8.594459 3.5194385 -21.28465 223 228 235
9.576826 3.516731 -21.300364 237 241 245
10.532054 3.5047927 -21.261621 254 255 255
11.507211 3.5006297 -21.268658 231 235 239
12.570632 3.5219953 -21.426702 223 229 234
-12.500301 2.5892456 -20.877161 199 207 213
-11.535178 2.5900567 -20.920162 205 213 219
-10.564735 2.590156 -20.957714 214 220 225
-9.58891 2.5893106 -20.987967 237 242 243
-8.604513 2.5861976 -21.000534 215 223 227
-7.617138 2.5819244 -21.004002 178 191 204
-6.6447644 2.5832944 -21.051716 180 193 204
-5.661216 2.5807436 -21.06872 157 168 182
-4.676052 2.5773265 -21.078903 183 193 203
-3.6875765 2.5710943 -21.066853 211 217 224
-2.7042394 2.5674324 -21.075022 218 225 231
-1.7271324 2.572617 -21.153212 194 202 208
-0.7409005 2.5649 -21.129288 219 226 233
0.24228527 2.5629308 -21.150894 182 191 201
1.2222168 2.5530903 -21.109869 169 178 190
2.1987498 2.5454645 -21.086302 186 196 206
3.1795106 2.5442727 -21.113989 206 214 222
4.1560144 2.5397153 -21.11479 195 205 214
5.1461954 2.5428 -21.176794 194 202 211
6.122318 2.5380454 -21.176012 191 201 211
7.09631 2.5330734 -21.173426 184 194 206
8.084945 2.533382 -21.213327 213 219 226
9.066128 2.5308924 -21.230726 246 248 252
10.01703 2.520493 -21.184164 229 235 240
10.958027 2.5091255 -21.129536 223 228 231
11.883163 2.49574 -21.058279 163 163 163
-9.466096 1.2445765 -16.4212 137 137 130
-8.6838875 1.2407634 -16.412859 75 61 60
-7.9143286 1.2387772 -16.426867 89 70 71
-8.707685 1.5311378 -20.064981 155 156 160
-8.084818 1.5955471 -20.906904 171 179 192
-7.0945735 1.5902071 -20.889896 158 160 166
-6.1219716 1.5889316 -20.92313 224 228 232
-5.1686196 1.594571 -21.042389 179 189 198
-4.1753235 1.5877982 -21.007507 174 185 199
-2.710796 1.3256367 -17.783344 61 65 71
-1.8851068 1.3265125 -17.836203 55 57 64
-1.0549309 1.3262458 -17.87491 56 61 66
-0.22214481 1.3238815 -17.887362 56 60 67
0.6076951 1.3154407 -17.82321 61 65 71
1.4385118 1.3147452 -17.856562 47 50 58
2.6756923 1.5591573 -20.994303 157 168 181
3.656313 1.5588471 -21.040087 168 178 193
4.6388144 1.5582039 -21.081778 171 183 194
4.5572 1.246877 -17.160704 75 79 86
5.397718 1.2558943 -17.316744 159 164 169
6.119255 1.2363158 -17.106977 92 100 106
6.860532 1.2245048 -16.99594 132 141 149
7.7392945 1.2382404 -17.21328 110 119 127
8.6607485 1.2556107 -17.478514 79 83 85
11.066174 1.4800647 -20.424353 153 156 160
11.819028 1.4527143 -20.118391 153 157 161
-9.763788 0.4691498 -16.247574 160 163 158
-9.071611 0.47159597 -16.390802 71 78 79
-8.380861 0.47495416 -16.561567 166 175 174
-5.0086656 0.27665433 -10.878538 41 33 36
-4.6437693 0.28746665 -11.24309 72 55 57
-3.9605148 0.27125287 -10.819034 71 55 57
-2.4518023 0.16141687 -7.6354833 144 148 149
-1.9365436 0.14040859 -7.049157 116 117 109
-4.6277323 0.6020656 -20.793835 124 130 143
-3.683838 0.6049092 -20.974207 127 137 154
-2.3083408 0.4976035 -17.854187 129 148 158
-1.4742688 0.4951122 -17.861683 102 110 114
-0.64214116 0.49404204 -17.91212 77 79 81
0.192739 0.4913001 -17.91209 139 148 157
1.0242001 0.48738807 -17.876204 144 158 168
1.990517 0.5259259 -19.142252 92 90 99
2.9913747 0.5467991 -19.875563 112 113 116
4.1027308 0.57453275 -20.828121 170 176 184
4.2412596 0.46365312 -17.476353 129 140 150
4.996419 0.45529744 -17.297981 121 133 142
5.395229 0.4151545 -16.119247 162 168 168
5.9133496 0.3942457 -15.536227 50 47 37
6.8495035 0.40813223 -16.05102 140 154 160
7.5450873 0.40298274 -15.964029 43 44 40
7.7503166 0.36909664 -14.955922 24 22 16
8.822515 0.38803992 -15.637764 114 120 125
-9.257493 -0.29339257 -16.017427 162 169 160
-3.5841343 -0.18022633 -6.698458 33 30 30
-2.0748506 -0.15004458 -4.213772 15 18 24
-1.8822516 -0.15073678 -4.2286415 17 8 14
-1.6970758 -0.15171331 -4.2656603 29 21 27
-1.5047619 -0.1525483 -4.2910137 13 15 21
-1.3264551 -0.15410544 -4.3717213 17 19 26
-1.1630632 -0.15687223 -4.5435653 205 210 213
-3.132593 -0.30375233 -15.638993 134 129 126
-2.7332957 -0.33530417 -17.870012 39 39 40
-1.8950539 -0.33725324 -17.85703 49 51 50
-1.0584449 -0.33899504 -17.82921 153 158 161
-0.22586168 -0.34098879 -17.820543 125 131 133
0.60170346 -0.34187976 -17.732243 106 111 114
1.4243449 -0.3434997 -17.698109 105 113 118
2.0437918 -0.32372844 -16.138897 64 45 44
2.7838244 -0.3249083 -16.087923 69 47 41
3.6558423 -0.33487695 -16.654556 171 176 183
4.631706 -0.3477747 -17.415928 160 171 180
4.9069204 -0.32551348 -15.738614 27 28 19
5.544164 -0.32376847 -15.493015 39 38 28
6.224593 -0.32437778 -15.411409 33 31 25
6.911855 -0.32546884 -15.363731 43 46 45
7.367712 -0.31978613 -14.864086 36 32 25
8.021812 -0.3207538 -14.813542 35 34 25
8.79982 -0.32503286 -14.981942 122 124 121
-9.054573 -0.98858905 -15.023862 64 72 76
-2.2728784 -0.33620647 -4.025273 124 131 144
-2.1077707 -0.3395732 -4.076105 103 111 121
-1.9400902 -0.3432043 -4.1312375 114 121 134
-1.7546623 -0.34497565 -4.155062 92 98 109
-1.577764 -0.34848246 -4.207864 83 89 98
-1.4070004 -0.3540565 -4.2950625 80 88 96
-1.2179004 -0.35731333 -4.343365 89 94 105
-1.019345 -0.35915995 -4.3680468 200 207 211
-0.9476951 -0.40566677 -5.1356683 147 140 122
-1.1280259 -0.6062505 -8.460906 125 120 97
-0.7489464 -0.6198281 -8.674402 92 88 69
-0.35241246 -0.63699764 -8.946833 79 76 66
0.06794938 -0.6497103 -9.14479 189 191 195
0.5011413 -0.6574304 -9.259734 63 67 70
0.9592435 -0.6735641 -9.513196 81 83 89
1.4531071 -0.6948029 -9.850093 104 108 114
2.0009892 -0.7231969 -10.30382 108 110 116
3.2019548 -0.90270144 -13.239255 79 77 64
3.8827481 -0.91796607 -13.471736 93 86 58
5.1169024 -1.0291631 -15.275619 54 51 39
5.832749 -1.0321535 -15.303908 29 28 27
6.3750725 -1.0103085 -14.926284 120 120 115
5.7054095 -0.83743536 -12.0848675 193 204 213
6.57909 -0.8757756 -12.693562 184 190 191
6.952057 -0.8542322 -12.325945 185 193 197
-2.3456104 -0.52099884 -3.9807947 65 52 56
-2.0888267 -0.5075047 -3.8524792 104 109 110
-1.883699 -0.50269103 -3.805604 130 133 135
-1.7163327 -0.50601006 -3.8349278 143 147 152
-1.5550913 -0.5117203 -3.886607 137 141 145
-1.400516 -0.52099484 -3.9715858 142 147 152
-1.2355933 -0.52932614 -4.0476694 49 6 17
-1.0660514 -0.53866166 -4.1330714 79 14 27
-0.9128029 -0.5610516 -4.340356 81 82 83
-0.81736106 -0.63832814 -5.0599823 27 24 30
-0.74912274 -0.8136193 -6.693793 154 153 146
-0.43351415 -0.80966693 -6.6538763 153 154 151
-0.1221374 -0.8059931 -6.6165986 69 68 67
0.18615238 -0.8048127 -6.6026006 180 176 168
0.4979549 -0.8103956 -6.6516314 160 157 155
0.8129009 -0.815186 -6.6932435 155 156 155
1.1416017 -0.82626003 -6.7933116 124 123 121
1.4825577 -0.83898807 -6.9086823 110 111 111
1.8302668 -0.8503379 -7.0111384 60 54 59
2.1728737 -0.8568924 -7.0689297 113 112 113
2.5217564 -0.8638713 -7.1306167 150 153 155
2.896045 -0.876176 -7.241719 150 156 159
3.2427437 -0.87964326 -7.2706833 133 140 141
3.6201687 -0.88925725 -7.3566647 126 133 136
4.0797477 -0.91361666 -7.5793405 134 138 142
4.4859734 -0.9246566 -7.678339 131 138 141
-2.382474 -0.6934146 -3.8797765 106 111 114
-2.1857626 -0.6900647 -3.8576777 64 68 70
-1.9924884 -0.6870354 -3.8376641 105 110 113
-1.8145716 -0.6884388 -3.8464324 169 176 178
-1.6406293 -0.69154376 -3.8662448 50 48 46
-1.4640384 -0.6942057 -3.8831787 109 116 118
-1.2950299 -0.70121723 -3.9283392 109 114 116
-1.1273538 -0.71128696 -3.993339 102 106 110
-0.9699186 -0.73257136 -4.131099 136 140 144
-0.8300831 -0.7806785 -4.442873 88 87 88
-0.70843273 -0.8860809 -5.126314 95 100 102
-0.56892353 -1.0800996 -6.384512 133 142 144
-0.2708254 -1.0841038 -6.409923 138 147 149
0.029359521 -1.089854 -6.446655 132 141 144
0.33297426 -1.0967346 -6.4907136 134 140 143
0.6430892 -1.1077 -6.5612545 136 142 144
0.9616627 -1.1210072 -6.6469693 136 143 146
1.2901958 -1.1361918 -6.744843 112 117 121
1.6293752 -1.1526339 -6.850852 116 121 124
1.9731508 -1.1665646 -6.9405627 129 133 136
2.3077054 -1.1727444 -6.9800177 138 144 147
2.6311712 -1.1732213 -6.982502 133 139 142
2.9718516 -1.1799357 -7.0254126 136 142 145
3.3060627 -1.1834404 -7.047516 131 137 140
3.6403193 -1.1865005 -7.066736 130 136 139
3.9778657 -1.1901032 -7.089468 130 135 136
-2.1763415 -0.83635837 -3.6778276 56 59 61
-2.0166957 -0.8420816 -3.7066407 50 53 57
-1.8447376 -0.84369755 -3.715067 56 58 61
-1.679641 -0.8487402 -3.74051 66 69 71
-1.5147318 -0.8549978 -3.7719905 72 73 76
-1.3517154 -0.86398673 -3.8170424 75 78 80
-1.1949983 -0.8800616 -3.8972998 99 105 108
-1.0320929 -0.89705974 -3.9821599 142 148 153
-0.87728685 -0.93015224 -4.1469955 114 118 120
-0.7948715 -1.0801712 -4.8928266 99 104 105
-0.70795184 -1.356953 -6.2687197 144 149 151
-0.4177313 -1.3703408 -6.335928 136 142 143
-0.12157128 -1.3822252 -6.395676 125 130 129
0.17908026 -1.3905047 -6.4375186 131 136 137
0.48340473 -1.3992777 -6.481821 135 140 141
0.7942742 -1.4124538 -6.548025 137 142 142
1.1128483 -1.4278768 -6.625414 134 139 139
1.4392493 -1.4442638 -6.7076116 120 125 126
1.7715023 -1.4596552 -6.784875 121 126 128
2.0935109 -1.4642763 -6.808583 139 144 143
2.3914466 -1.4546051 -6.7611976 124 129 128
2.6869452 -1.4461243 -6.7197227 126 130 132
2.9972336 -1.446069 -6.720161 136 140 141
3.2919493 -1.4399438 -6.690394 123 125 125
3.6002858 -1.4399927 -6.691344 152 151 147
3.8692179 -1.4268317 -6.626547 106 102 99
-2.2698314 -1.0121692 -3.6831248 133 137 139
-2.10784 -1.0180161 -3.707464 134 142 142
-1.937048 -1.0205477 -3.718495 106 112 113
-1.7648641 -1.0227491 -3.7282028 75 80 80
-1.593933 -1.0261042 -3.7425513 56 58 59
-1.4198626 -1.0280616 -3.7512865 20 22 25
-1.2539605 -1.0368766 -3.7875977 47 48 49
-1.092427 -1.0526524 -3.8519192 9 9 13
-0.92961293 -1.0734986 -3.9366672 9 10 13
-0.8073449 -1.163009 -4.297737 174 177 177
-0.70962316 -1.3660595 -5.115927 17 21 25
-0.5348544 -1.5680231 -5.9301176 187 178 162
-0.25689268 -1.5695356 -5.937569 184 177 165
0.02141492 -1.5722327 -5.9497933 173 160 140
0.30098355 -1.5771196 -5.970842 187 175 159
0.5839345 -1.5862452 -6.0089774 166 149 129
0.87107885 -1.5970564 -6.0539203 135 126 115
1.1563748 -1.6009054 -6.070818 104 102 97
1.4426589 -1.6045876 -6.0870476 97 100 98
1.7261114 -1.6049575 -6.0899253 115 121 120
1.9947119 -1.5946118 -6.0495763 106 111 112
2.2541103 -1.5810384 -5.996185 121 128 127
2.5367534 -1.5838546 -6.0089087 98 103 102
2.8061404 -1.5794176 -5.9923596 101 108 109
3.043875 -1.5609678 -5.919224 91 95 97
3.3217492 -1.5630299 -5.9288883 111 118 119
-2.184926 -1.187176 -3.6834886 31 34 36
-2.0180256 -1.1916631 -3.6997845 39 41 41
-1.8561406 -1.2000142 -3.7291214 22 25 27
-1.678951 -1.1996726 -3.7291477 14 15 19
-1.5134413 -1.2080427 -3.758573 30 31 34
-1.348443 -1.219051 -3.7969224 85 88 86
-1.1743138 -1.2242365 -3.8156295 23 26 26
-1.0090097 -1.2418488 -3.8763266 17 20 24
-0.84325826 -1.2669344 -3.962314 64 69 72
-0.8000543 -1.5467968 -4.909572 49 53 56
-0.576262 -1.5668072 -4.9787726 75 80 82
-0.3419562 -1.564334 -4.971967 92 100 99
-0.10861474 -1.5610826 -4.962521 81 87 88
0.123458475 -1.5575855 -4.952236 89 96 97
0.3567507 -1.5630274 -4.972205 95 100 99
0.592467 -1.5705082 -4.99909 104 109 110
0.83320475 -1.5827421 -5.0420914 89 94 95
1.0765877 -1.5936258 -5.080541 89 93 97
1.3263199 -1.6079025 -5.130515 79 83 87
1.5711546 -1.6136174 -5.1514854 88 93 96
1.8152773 -1.6174603 -5.166116 93 98 99
2.0637453 -1.6237056 -5.1889052 97 102 102
2.3136618 -1.6297499 -5.211024 110 115 116
2.5519772 -1.6279999 -5.206692 102 108 109
2.7917185 -1.6274236 -5.206341 117 122 121
3.0089593 -1.615904 -5.1688104 113 120 121
-2.485951 -1.4828628 -4.0319757 24 21 23
-2.3660207 -1.5273408 -4.162659 1 0 2
-2.2295523 -1.5688505 -4.284816 64 67 71
-2.0544596 -1.5899479 -4.3477445 38 38 39
-1.817333 -1.5640562 -4.274112 15 13 17
-1.5637919 -1.515822 -4.1354446 0 0 5
-1.3446598 -1.4902763 -4.0626783 0 0 5
-1.1368564 -1.4700007 -4.0051937 6 4 8
-0.94277525 -1.4620594 -3.9835746 4 5 8
-0.7899713 -1.5304009 -4.184123 57 59 63
-0.6073537 -1.5688143 -4.297616 77 82 83
-0.40415382 -1.5640557 -4.2853537 99 104 105
-0.20234871 -1.5586462 -4.271181 81 86 87
-0.0021993106 -1.5527292 -4.2555156 88 92 94
0.19699003 -1.5514396 -4.253339 82 88 89
0.39818072 -1.5581646 -4.274554 84 88 90
0.6024811 -1.5680467 -4.3050027 70 75 76
0.81479967 -1.587255 -4.362716 94 98 100
1.0330975 -1.6076827 -4.4240346 79 84 86
1.2535076 -1.624256 -4.474128 80 85 88
1.4768438 -1.6393834 -4.520026 62 64 69
1.7002263 -1.6510465 -4.555822 85 87 91
1.9295533 -1.6650164 -4.598392 79 83 87
2.1643546 -1.6802895 -4.644807 101 103 106
2.37596 -1.6779122 -4.6395564 92 97 98
2.5978801 -1.6821699 -4.6537404 75 79 83
-1.697992 -1.2056557 -2.8354576 18 21 21
-2.1804285 -1.6600132 -3.995361 20 21 23
-1.9417671 -1.620474 -3.8961804 20 25 25
-1.7433571 -1.6083038 -3.8667684 13 16 16
-1.5472488 -1.5953553 -3.835342 11 9 13
-1.3596722 -1.588445 -3.819311 9 9 12
-1.1744084 -1.5822233 -3.8050237 16 19 23
-0.9902041 -1.5751028 -3.788424 34 37 39
-0.8094165 -1.571071 -3.7797084 56 60 62
-0.63011765 -1.568055 -3.773582 81 83 83
-0.45253482 -1.5682807 -3.7757466 90 97 99
-0.27433413 -1.5638788 -3.7660587 72 77 78
-0.09727213 -1.5579202 -3.752373 79 84 85
0.078343466 -1.5531125 -3.7416224 79 82 84
0.25333148 -1.5513256 -3.738607 117 124 122
0.42856532 -1.5519065 -3.7416606 47 52 53
0.6092742 -1.5644628 -3.775448 81 86 87
0.80240947 -1.593568 -3.8517504 66 70 73
1.006054 -1.627893 -3.941521 104 109 110
1.2128997 -1.6561815 -4.015853 93 95 99
1.417628 -1.6750815 -4.0661097 72 73 76
1.6232326 -1.6906339 -4.107797 81 84 88
1.8235471 -1.6986219 -4.130054 83 85 88
2.034576 -1.7135019 -4.1700664 72 75 77
2.2523234 -1.7307024 -4.216085 78 80 85
2.4623926 -1.7403014 -4.242557 82 84 86
-1.1729902 -0.90858746 -1.8525712 27 20 19
-1.172398 -0.97755796 -2.0101206 161 164 166
-1.8047963 -1.6061804 -3.4398973 66 68 68
-1.6240947 -1.5896299 -3.4038446 55 58 58
-1.4536389 -1.5800561 -3.383629 37 42 43
-1.2909262 -1.5771768 -3.3786306 42 45 45
-1.1288751 -1.5742204 -3.373449 58 61 63
-0.9675718 -1.5712864 -3.3683116 57 62 64
-0.8077909 -1.5699134 -3.3667252 74 77 77
-0.6487626 -1.5694417 -3.3671901 66 70 72
-0.48947033 -1.5674021 -3.3640764 73 78 80
-0.33084533 -1.5660824 -3.3625998 60 65 66
-0.17237698 -1.5619161 -3.3546202 69 73 75
-0.0149621805 -1.5556424 -3.3418167 54 57 59
0.14101815 -1.549431 -3.3291411 55 60 62
0.29579553 -1.5441414 -3.31856 65 68 69
0.45104384 -1.5436765 -3.3190036 53 58 61
0.6128107 -1.5578098 -3.3528564 44 47 49
0.7879748 -1.5903835 -3.4289603 58 63 64
0.9975818 -1.6638151 -3.598727 65 67 69
1.1952542 -1.7019515 -3.6877558 79 83 86
1.4249407 -1.7670331 -3.8386445 66 68 70
1.6250821 -1.7885457 -3.889725 63 66 66
1.8553336 -1.8332872 -3.9941573 68 71 73
2.0707047 -1.8579035 -4.052475 75 77 81
2.239916 -1.8435417 -4.021311 89 90 93
