ply
format ascii 1.0
element vertex 494
property float x
property float y
property float z
property uchar red
property uchar green
property uchar blue
element face 0
property list uchar int vertex_indices
end_header
-21.18915 5.7799497 -9.055333 126 134 152
-20.503677 5.77896 -9.630759 124 135 150
-19.863888 5.791529 -10.230017 131 139 156
-19.179342 5.791903 -10.810932 134 142 158
-18.577448 5.818462 -11.442584 132 140 156
-17.782906 5.7850857 -11.961064 127 136 150
-17.132479 5.79799 -12.570861 129 138 150
-16.525795 5.827746 -13.22129 129 136 149
-15.902161 5.8543463 -13.871525 127 133 146
-15.332593 5.9045386 -14.584719 128 134 147
-14.761146 5.9592876 -15.3204975 130 138 148
-14.158505 6.0069547 -16.050037 132 139 151
-13.525146 6.046641 -16.76879 134 141 152
-12.830086 6.0625076 -17.430004 136 143 154
-12.107174 6.0671105 -18.062874 144 149 162
-11.371311 6.06617 -18.681162 143 147 161
-10.617101 6.055522 -19.27024 147 152 164
-9.830767 6.024708 -19.793587 154 161 174
-9.072108 6.0079656 -20.358353 161 166 179
-8.363877 6.025026 -21.036205 158 165 178
-7.6425023 6.036152 -21.697836 167 173 186
-6.9182787 6.0483184 -22.366667 183 188 199
-6.1793118 6.0505295 -23.002106 179 186 197
-5.4194202 6.0321703 -23.560461 185 191 202
-4.6483865 5.9960318 -24.04633 183 188 201
-3.8610222 5.924843 -24.38451 180 187 202
-20.687037 4.8628902 -9.211522 136 145 158
-20.076982 4.8789454 -9.818892 137 145 159
-19.3872 4.8764806 -10.393425 139 147 163
-18.749828 4.887837 -10.998503 149 156 170
-18.083282 4.8925724 -11.592416 136 145 159
-17.402718 4.894161 -12.181156 122 131 145
-16.82582 4.9265313 -12.849057 117 126 140
-16.20896 4.9499564 -13.502346 118 127 141
-15.606086 4.980383 -14.181813 125 132 146
-15.017491 5.018895 -14.893115 128 135 150
-14.429673 5.0619884 -15.62869 130 137 152
-13.792859 5.092142 -16.335604 131 138 151
-13.097275 5.1034718 -16.99016 137 144 157
-12.375254 5.1059437 -17.619036 137 144 157
-11.649993 5.107999 -18.248407 139 146 159
-10.901771 5.100428 -18.844961 145 152 165
-10.134256 5.0830135 -19.40438 146 153 165
-9.373361 5.0673213 -19.967539 153 158 171
-8.639684 5.065674 -20.583933 155 160 171
-7.9234204 5.0757003 -21.24902 157 162 173
-7.191395 5.077913 -21.885014 162 166 180
-6.453243 5.0771394 -22.50998 165 170 183
-5.697222 5.0620985 -23.072521 174 179 193
-4.937971 5.041144 -23.605633 182 187 198
-4.1409864 4.971408 -23.905407 165 170 183
-3.400562 4.9543185 -24.443514 159 166 181
-20.66255 3.9163394 -8.71359 154 159 171
-20.163607 3.9481316 -9.355295 157 163 172
-19.587101 3.9667447 -9.975998 157 162 171
-18.925959 3.9693131 -10.562698 154 159 170
-18.342442 3.989305 -11.198624 159 164 177
-17.681295 3.993726 -11.797674 175 181 190
-17.088585 4.0149536 -12.449763 180 186 193
-16.509218 4.0416403 -13.126728 173 179 188
-15.93029 4.071219 -13.822592 144 151 162
-15.312957 4.093755 -14.504608 148 155 168
-14.704818 4.1215296 -15.213613 138 146 160
-14.07386 4.1459646 -15.920025 133 142 156
-13.37018 4.1511407 -16.560747 132 139 154
-12.64154 4.1493855 -17.176785 133 139 154
-11.897138 4.1426387 -17.773136 130 137 152
-11.166738 4.1408863 -18.390703 133 140 155
-10.411432 4.129871 -18.968002 138 144 159
-9.663464 4.121144 -19.554234 143 147 161
-8.937409 4.1218886 -20.184702 156 162 177
-8.21506 4.1255603 -20.83148 173 180 194
-7.47728 4.122626 -21.44753 179 186 199
-6.734182 4.1170597 -22.050629 173 178 191
-5.9863734 4.1083345 -22.636728 181 186 197
-5.215723 4.0813613 -23.12091 190 193 204
-4.4140177 4.020324 -23.40484 208 211 218
-3.6298592 3.9569151 -23.657854 198 202 209
-20.167171 3.022606 -8.866383 218 222 228
-19.677973 3.0478368 -9.512517 227 232 235
-19.110525 3.0626009 -10.13697 225 229 234
-18.550325 3.0799918 -10.777724 232 235 240
-17.92134 3.0872087 -11.39104 219 222 227
-17.34303 3.1044612 -12.046466 160 167 180
-16.782877 3.1269138 -12.730819 189 193 205
-16.218348 3.1508641 -13.431912 228 230 234
-15.605823 3.1676817 -14.113571 196 202 210
-14.959724 3.1794455 -14.781075 190 195 205
-14.315686 3.1933517 -15.465241 184 190 200
-13.616639 3.1963894 -16.103914 190 195 204
-12.88817 3.1931016 -16.713837 191 197 206
-12.140655 3.1851015 -17.299818 180 185 198
-11.374479 3.1716244 -17.85493 179 184 195
-10.639222 3.1662307 -18.452646 186 190 199
-9.903325 3.1606529 -19.049324 172 178 191
-9.190514 3.1629305 -19.693504 181 185 197
-8.492311 3.171902 -20.382595 187 191 203
-7.7534437 3.167137 -20.98889 200 204 212
-6.9663258 3.1411216 -21.454264 220 222 228
-6.0084696 3.0261922 -21.302725 226 226 231
-4.763434 2.7234557 -19.783749 115 119 122
-4.471693 2.9420366 -21.923708 229 229 234
-3.7388723 2.9075353 -22.268358 229 230 234
-2.9737961 2.8315098 -22.283295 107 107 112
-17.451773 1.833713 -7.317516 39 38 37
-19.61373 2.1294103 -8.990839 176 183 194
-19.171255 2.1511204 -9.6568575 177 186 198
-18.679815 2.1689606 -10.319654 189 198 210
-18.161552 2.1852055 -10.987123 182 191 203
-17.628813 2.2012377 -11.665057 184 192 206
-17.09593 2.218912 -12.363256 178 187 197
-16.524117 2.2331793 -13.054858 183 191 201
-15.876437 2.2383971 -13.704002 174 181 194
-15.212637 2.2421865 -14.350193 170 177 190
-14.543454 2.2460144 -15.001713 171 180 192
-13.825693 2.2428765 -15.611694 202 209 218
-13.077438 2.2347717 -16.188314 179 186 199
-12.340965 2.228501 -16.77679 204 210 219
-11.530126 2.207915 -17.256872 190 194 203
-10.747756 2.1911993 -17.758709 189 196 210
-10.008459 2.1823065 -18.317558 196 200 214
-9.323508 2.185578 -18.976515 209 214 227
-8.64646 2.192228 -19.669754 200 209 224
-7.8303494 2.162898 -20.047369 106 110 116
-6.33092 1.923839 -18.470116 101 102 103
-5.626725 1.8990805 -18.802675 157 159 164
-4.942503 1.8769585 -19.149525 112 106 103
-4.278674 1.8586987 -19.525328 124 117 115
-3.6317916 1.8444278 -19.934729 170 172 179
-2.9883285 1.8284764 -20.32044 159 161 162
-16.53166 1.0466243 -7.242851 22 23 24
-15.80692 1.0318356 -7.630489 163 173 176
-15.280097 1.0299712 -8.102658 6 4 6
-15.042677 1.0488248 -8.73743 123 128 127
-17.771587 1.2874293 -11.197291 221 227 234
-17.343626 1.3031791 -11.950776 211 219 223
-16.8134 1.312446 -12.664764 241 245 249
-16.142473 1.3113035 -13.292492 212 222 231
-15.392695 1.3037562 -13.85962 216 223 232
-14.676534 1.2990332 -14.454594 202 211 225
-13.92739 1.2912809 -15.016721 211 220 231
-13.0736475 1.2729948 -15.454815 219 225 234
-12.225988 1.253982 -15.871427 222 227 236
-11.121212 1.2052782 -15.901783 173 178 189
-10.17531 1.1698081 -16.061266 169 170 177
-9.525012 1.1669556 -16.63229 201 210 224
-8.748188 1.1476809 -16.974436 135 136 143
-8.032802 1.1349878 -17.397875 90 84 85
-7.370467 1.1291806 -17.917288 191 187 192
-6.5947585 1.1041995 -18.136078 183 189 194
-5.8923965 1.0887264 -18.487284 97 91 86
-5.204062 1.0737352 -18.835196 128 130 134
-4.534831 1.0605539 -19.203306 120 116 112
-3.8739665 1.0470918 -19.557272 144 140 136
-3.2106264 1.0297728 -19.831001 163 163 156
-2.5985534 1.0264866 -20.355577 182 183 171
-16.569527 0.3212984 -6.864248 42 42 45
-15.81017 0.312792 -7.233082 50 48 44
-15.08714 0.3048878 -7.60142 53 56 52
-14.558066 0.30119818 -8.054778 28 30 27
-14.271442 0.30317044 -8.64902 40 29 28
-14.059174 0.30725086 -9.319054 46 48 46
-14.040035 0.31655353 -10.163815 90 85 84
-14.573259 0.34067312 -11.497806 18 19 23
-14.075202 0.33966437 -12.140959 6 4 10
-13.486959 0.33647752 -12.725379 71 71 73
-12.745747 0.32912666 -13.169013 41 41 46
-12.03592 0.3224991 -13.630033 96 99 97
-11.280984 0.3143582 -14.02446 63 58 56
-10.571001 0.30734634 -14.45198 69 61 59
-9.954952 0.3032382 -14.996396 54 50 48
-9.359085 0.29990244 -15.578942 150 149 148
-8.765633 0.29681736 -16.179972 85 81 79
-8.19475 0.29482627 -16.843859 50 47 49
-7.580152 0.29139146 -17.445232 20 21 28
-6.9443274 0.2872164 -18.012836 141 137 131
-6.1376805 0.27483976 -18.111395 31 20 20
-5.450377 0.26740733 -18.468662 57 37 36
-4.800829 0.26163003 -18.915754 83 80 78
-4.1053467 0.25253132 -19.138771 95 90 87
-3.3425152 0.23696475 -18.892939 172 177 184
-2.7584515 0.23358548 -19.45435 71 64 53
-12.204843 -0.3070905 -5.382982 192 199 195
-12.128855 -0.31827617 -5.88143 195 203 203
-13.104907 -0.35576123 -6.9322257 10 10 13
-13.460933 -0.38085982 -7.785581 91 95 99
-13.071106 -0.38818684 -8.283279 16 17 19
-12.652171 -0.395056 -8.776799 1 0 1
-12.5763445 -0.412437 -9.530052 6 -3 0
-12.902501 -0.4439346 -10.661705 109 100 87
-12.704337 -0.46121144 -11.472272 75 68 57
-9.778307 -0.38403672 -9.770301 134 140 139
-9.347575 -0.3899392 -10.229984 144 150 149
-9.828934 -0.432483 -11.737961 85 80 77
-10.549329 -0.49053353 -13.763568 148 147 137
-9.985321 -0.49772042 -14.343193 55 49 40
-9.461558 -0.5072707 -14.999793 53 50 49
-8.779127 -0.5091856 -15.422146 68 65 65
-8.192936 -0.516166 -16.004444 3 -1 2
-7.642997 -0.52584666 -16.67959 150 143 134
-7.0276613 -0.5319899 -17.242117 76 71 53
-6.130715 -0.51687753 -17.071941 0 0 1
-5.519668 -0.52153987 -17.571396 21 3 6
-4.883768 -0.5238193 -17.985321 15 2 3
-4.2294793 -0.52338076 -18.296677 13 2 5
-3.5523176 -0.51828784 -18.428064 130 134 138
-2.9448402 -0.5202084 -18.81291 200 199 191
-2.3567536 -0.52465653 -19.291988 139 138 129
-11.747305 -0.8047562 -4.9158263 135 138 134
-11.159741 -0.7952693 -5.16288 152 158 153
-11.352346 -0.83926785 -5.758516 168 175 170
-12.244818 -0.9375707 -6.7715015 80 70 39
-11.69982 -0.9350003 -7.103737 95 85 59
-11.355568 -0.94779533 -7.5521946 104 93 66
-10.7992115 -0.943873 -7.86987 116 104 86
-8.442665 -0.78288686 -6.826394 151 145 135
-7.6007204 -0.7435815 -6.754946 120 118 115
-7.32255 -0.7539728 -7.118186 152 155 155
-7.2733912 -0.7883825 -7.7213936 139 144 143
-7.193828 -0.823174 -8.3518305 133 138 139
-7.0764394 -0.8575318 -9.001101 131 136 137
-6.9027567 -0.889098 -9.642888 133 137 137
-6.676879 -0.9177881 -10.272972 131 134 134
-6.376688 -0.9398818 -10.845003 126 131 131
-6.073201 -0.9643767 -11.459035 131 134 136
-5.8181386 -1.0001589 -12.226548 134 137 138
-5.4655414 -1.0246154 -12.873715 142 140 135
-5.021377 -1.0355229 -13.359645 173 165 153
-4.5530257 -1.0428385 -13.802766 171 164 154
-4.124722 -1.060566 -14.390642 160 151 143
-3.8453481 -1.1222599 -15.603655 103 95 79
-3.3513644 -1.1348795 -16.152174 101 87 65
-2.8241546 -1.1384245 -16.573376 105 92 64
-2.2505333 -1.1210954 -16.681072 105 89 62
-9.028599 -1.0465966 -4.036123 130 114 83
-8.969872 -1.0783727 -4.4068713 130 117 90
-8.762876 -1.0948737 -4.729016 92 84 65
-8.6039 -1.1184461 -5.0888047 108 109 108
-8.319508 -1.127667 -5.392724 113 112 111
-7.5231633 -1.0687317 -5.369897 138 125 111
-7.225278 -1.0741717 -5.6447444 181 172 161
-6.9223995 -1.0791671 -5.9186764 108 106 102
-6.6875806 -1.0949296 -6.2536383 121 124 122
-6.3493857 -1.0952901 -6.5057173 139 142 140
-6.1537657 -1.1198511 -6.9026084 151 154 152
-5.9846606 -1.1517645 -7.355833 127 132 132
-5.7716184 -1.1788108 -7.7911434 127 130 132
-5.5082874 -1.1987243 -8.189841 122 125 125
-5.196437 -1.2104026 -8.539265 134 137 137
-4.8976364 -1.2264649 -8.924303 141 144 144
-4.6293745 -1.2523609 -9.388307 131 134 134
-4.3418465 -1.2769064 -9.852532 126 129 130
-4.0287027 -1.2977943 -10.29786 125 128 130
-3.6898892 -1.313867 -10.71239 127 129 131
-3.3162334 -1.3201101 -11.051163 127 130 132
-2.9314446 -1.3225999 -11.359413 119 122 124
-2.539859 -1.3217692 -11.638419 129 132 134
-2.1637564 -1.3282349 -11.981283 125 127 127
-1.7852696 -1.3345519 -12.324367 145 148 148
-1.3979582 -1.3353106 -12.61662 115 113 108
-7.1578555 -1.1467345 -3.1155252 90 76 46
-7.1067095 -1.179651 -3.3998392 107 95 62
-7.037154 -1.211928 -3.693291 129 115 81
-7.0004005 -1.2521607 -4.021329 82 70 38
-6.9141207 -1.2867823 -4.344918 121 110 87
-6.4312534 -1.2512044 -4.444297 175 170 161
-6.2625957 -1.2726644 -4.731912 173 166 155
-6.099417 -1.2970186 -5.036986 186 176 163
-5.865299 -1.3085766 -5.3001676 77 77 73
-5.6321445 -1.3213027 -5.571339 132 135 133
-5.3637695 -1.3269461 -5.816269 126 129 127
-5.1122828 -1.3371361 -6.0823684 119 122 122
-4.8956084 -1.3573408 -6.3968997 141 143 141
-4.655767 -1.373384 -6.697881 133 136 134
-4.3968635 -1.3856394 -6.984999 129 131 131
-4.1287303 -1.3964002 -7.267937 117 119 121
-3.8612149 -1.4086645 -7.56163 122 125 125
-3.584684 -1.4192544 -7.849638 126 128 130
-3.3056676 -1.430328 -8.143136 136 139 139
-3.0186756 -1.4396101 -8.42929 133 135 137
-2.7209768 -1.4451925 -8.695922 139 142 144
-2.4194918 -1.4495044 -8.9559355 125 128 130
-2.108821 -1.4487013 -9.184716 134 135 134
-1.7959669 -1.4453857 -9.396395 127 130 130
-1.4874843 -1.4437045 -9.616969 124 126 126
-1.1899227 -1.4514991 -9.900008 113 116 118
-5.945633 -1.2537938 -2.765849 67 59 32
-5.881044 -1.285803 -3.002152 100 87 61
-5.8179836 -1.3204806 -3.2528462 82 69 44
-5.762096 -1.3593948 -3.522743 100 91 67
-5.527261 -1.3598619 -3.7058003 168 160 152
-5.350306 -1.3742349 -3.9255219 164 159 150
-5.1927233 -1.3946469 -4.1655917 163 156 145
-5.0554943 -1.4222039 -4.431707 145 141 135
-4.896922 -1.4463645 -4.6944013 96 96 91
-4.68592 -1.4575096 -4.9214396 91 94 92
-4.4605074 -1.4652262 -5.1395464 134 135 133
-4.2596326 -1.4816053 -5.389337 152 153 152
-4.0527916 -1.4976811 -5.6419406 152 153 152
-3.822097 -1.5068156 -5.8723726 132 133 132
-3.5859158 -1.514788 -6.100242 148 151 149
-3.340327 -1.519688 -6.317413 133 134 132
-3.0914972 -1.5235884 -6.531243 135 138 138
-2.8403778 -1.5267012 -6.742237 123 126 127
-2.58442 -1.5274318 -6.943052 131 134 134
-2.3251772 -1.5259727 -7.1336164 124 127 129
-2.070946 -1.5270658 -7.3352194 111 112 114
-1.8121268 -1.5245342 -7.5192027 138 141 143
-1.5438509 -1.5126362 -7.6558156 136 139 139
-1.284417 -1.5048858 -7.8098316 118 119 119
-1.0318578 -1.5014795 -7.9839067 120 121 122
-0.7877602 -1.5081662 -8.210354 120 123 125
-5.11285 -1.303772 -2.3129869 98 89 64
-5.0268254 -1.328643 -2.4985263 46 40 13
-4.943287 -1.3559273 -2.6936643 96 86 63
-4.8540406 -1.3837078 -2.8955996 104 92 69
-4.7409034 -1.40697 -3.094489 115 109 105
-4.600903 -1.4242722 -3.28575 121 113 107
-4.45642 -1.4416078 -3.4806492 172 165 157
-4.30969 -1.4596864 -3.6808403 152 145 136
-4.1738687 -1.4829822 -3.897488 75 69 59
-4.073294 -1.5207723 -4.1560245 65 65 62
-3.929299 -1.5464364 -4.3903265 131 128 126
-3.7509968 -1.5614727 -4.6004796 93 95 92
-3.5630689 -1.5741358 -4.8067656 134 135 134
-3.365493 -1.583967 -5.007009 125 127 126
-3.1603281 -1.591356 -5.2014756 118 120 118
-2.9507098 -1.5973425 -5.392697 148 152 150
-2.731573 -1.5988876 -5.5700884 162 165 163
-2.5075364 -1.5975733 -5.737623 144 145 144
-2.2836223 -1.5958087 -5.902912 131 134 134
-2.0534458 -1.5890319 -6.0491195 127 130 130
-1.8290808 -1.5849038 -6.2034683 120 123 124
-1.6068085 -1.5811869 -6.3581576 117 120 122
-1.378483 -1.570065 -6.482173 121 124 124
-1.1549336 -1.5603215 -6.6090665 119 120 120
-0.9336678 -1.5493854 -6.7284927 117 118 119
-0.71372277 -1.5348378 -6.829643 137 139 139
-4.3629155 -1.349614 -2.1144881 95 86 64
-4.2868214 -1.375477 -2.2783444 63 55 35
-4.2105207 -1.4031676 -2.4497397 93 86 62
-4.110882 -1.4254079 -2.6173704 69 60 46
-4.0024385 -1.446417 -2.7869105 136 129 122
-3.8808925 -1.4645191 -2.9549541 142 134 126
-3.7488081 -1.4802604 -3.121702 141 134 127
-3.6089122 -1.4943529 -3.2878983 135 128 119
-3.4676619 -1.509157 -3.4580245 84 79 70
-3.3223977 -1.5236496 -3.6300306 110 102 92
-3.3351104 -1.6102833 -3.9698052 88 88 85
-3.163346 -1.6193913 -4.1407824 79 78 76
-2.981913 -1.6245809 -4.303496 100 102 100
-2.795187 -1.6274288 -4.4608927 65 68 68
-2.6065521 -1.629383 -4.6161747 139 142 141
-2.4168243 -1.630746 -4.769923 94 96 95
-2.2200356 -1.6274258 -4.9102845 141 143 141
-2.025395 -1.6248332 -5.051904 137 139 137
-1.8269033 -1.6184566 -5.1812596 141 142 141
-1.6274267 -1.60961 -5.3014126 121 122 122
-1.433218 -1.6034977 -5.428488 143 146 146
-1.2371709 -1.5934178 -5.5409827 131 134 134
-1.0446297 -1.5843204 -5.654705 122 125 125
-0.85315555 -1.5731264 -5.7591305 126 129 129
-0.66390073 -1.5605801 -5.8563633 106 109 109
-0.4833654 -1.5603898 -5.9966583 108 111 113
-3.8639536 -1.3662323 -1.8253499 51 46 32
-3.787541 -1.3886309 -1.9635265 85 80 63
-3.7198515 -1.4157237 -2.1112309 73 70 52
-3.6362662 -1.439008 -2.2581315 65 56 40
-3.5490785 -1.4627168 -2.4093435 30 25 15
-3.4411492 -1.4800676 -2.5546615 207 198 186
-3.321016 -1.4937689 -2.696831 181 170 159
-3.1996064 -1.5080712 -2.8420992 196 187 175
-3.0736637 -1.5215722 -2.9881327 198 189 177
-2.9452016 -1.5351127 -3.136283 207 197 184
-2.7995393 -1.5412858 -3.2722359 126 118 110
-2.8150706 -1.6339316 -3.5833125 114 111 107
-2.6540816 -1.6377547 -3.7231033 73 72 69
-2.483942 -1.6364118 -3.8520565 111 113 111
-2.3109574 -1.6329025 -3.975684 120 123 121
-2.1407983 -1.6306512 -4.1014824 140 143 141
-1.9700067 -1.6273961 -4.224275 179 180 179
-1.7988778 -1.6231239 -4.343784 91 92 91
-1.6309644 -1.6206609 -4.4670787 150 149 147
-1.4591327 -1.6137046 -4.5777736 141 142 141
-1.2897842 -1.6075894 -4.689452 135 136 135
-1.1213862 -1.6007977 -4.798024 132 133 132
-0.95384026 -1.5929136 -4.902115 143 144 142
-0.78699726 -1.5831693 -4.9991627 126 129 128
-0.62102395 -1.5707997 -5.0863667 107 110 110
-0.4589759 -1.5611199 -5.1798735 128 129 130
-3.4031608 -1.4006017 -1.7200208 66 63 43
-3.3370283 -1.4251139 -1.8473825 121 113 91
-3.2650652 -1.4490452 -1.9775605 75 68 54
-3.1853201 -1.4714907 -2.1093163 96 90 80
-3.0921211 -1.489743 -2.2388167 199 191 177
-2.9895673 -1.505154 -2.366976 195 187 173
-2.8799756 -1.5184572 -2.4942186 207 198 184
-2.7691991 -1.5323185 -2.6241088 166 157 143
-2.6564121 -1.5463793 -2.7561965 199 188 173
-2.542624 -1.5612324 -2.8915045 199 186 174
-2.417518 -1.5709172 -3.0198805 157 148 136
-2.3800254 -1.6362854 -3.2500117 62 61 58
-2.231275 -1.6358304 -3.3659227 84 84 79
-2.0829449 -1.6354696 -3.4817917 69 71 67
-1.9300879 -1.6314911 -3.5901308 137 138 136
-1.7772833 -1.6267982 -3.6962364 99 102 100
-1.6267874 -1.6231971 -3.8038712 112 114 112
-1.4772336 -1.6196737 -3.911002 116 117 116
-1.3281964 -1.6158087 -4.016677 119 120 119
-1.179157 -1.6108968 -4.1191416 140 141 140
-1.0309365 -1.6056298 -4.21987 143 144 142
-0.8828618 -1.5988845 -4.315949 145 146 145
-0.7349269 -1.5899737 -4.4052734 135 136 134
-0.5881718 -1.5797969 -4.4897823 159 160 160
-0.44217145 -1.5664909 -4.5640955 125 127 125
-0.30031577 -1.5579878 -4.649876 128 129 128
-3.111021 -1.4171027 -1.5303853 77 69 52
-3.0387428 -1.4360886 -1.6394749 63 55 47
-2.9704847 -1.4582573 -1.7540859 65 58 44
-2.8979225 -1.4800777 -1.8711498 53 41 36
-2.8121495 -1.4971584 -1.9857063 167 159 152
-2.718688 -1.511702 -2.0994086 206 197 183
-2.6182642 -1.5237545 -2.2118084 189 181 165
-2.5203292 -1.5382198 -2.3288362 189 180 165
-2.4177284 -1.5512786 -2.4457095 204 193 180
-2.3168864 -1.5666463 -2.5675044 44 40 35
-2.2164094 -1.5837923 -2.6938722 119 110 106
-2.124273 -1.608447 -2.8341706 67 66 63
-2.0249238 -1.6307237 -2.9736745 72 71 68
-1.8957244 -1.6327901 -3.0815368 77 77 74
-1.7644316 -1.6332883 -3.1867669 77 76 73
-1.6295457 -1.6305588 -3.2860162 88 92 90
-1.4938389 -1.6264746 -3.3822103 98 101 99
-1.3588935 -1.6223181 -3.477604 103 104 103
-1.2247223 -1.6180857 -3.5721781 134 136 134
-1.0913835 -1.6138281 -3.6660247 137 140 138
-0.95890003 -1.60957 -3.759194 132 133 132
-0.82615864 -1.6035914 -3.8478618 109 109 108
-0.6940427 -1.5967126 -3.9335744 156 155 155
-0.5625888 -1.5885569 -4.0152726 140 140 139
-0.43178263 -1.5783185 -4.090763 124 125 126
-0.3023954 -1.5668253 -4.1617007 131 132 131
-2.8041034 -1.4500831 -1.4725227 98 87 73
-2.7382102 -1.4703555 -1.5747075 86 83 75
-2.6632223 -1.4874914 -1.6763813 173 162 152
-2.579512 -1.5013083 -1.776801 196 186 171
-2.49098 -1.5135448 -1.8771532 172 162 151
-2.4021342 -1.5265921 -1.9797503 187 176 162
-2.3098772 -1.5386916 -2.0827198 207 199 185
-2.2174761 -1.5517693 -2.188212 201 191 177
-2.1218169 -1.5639057 -2.2939703 217 208 194
-2.027219 -1.5779625 -2.4036162 215 208 193
-1.933258 -1.5939431 -2.5174942 216 207 195
-1.8389283 -1.6113982 -2.6352956 73 73 66
-1.7370139 -1.6246331 -2.7487206 79 78 75
-1.6231588 -1.6289743 -2.8497157 80 80 75
-1.5051215 -1.6298584 -2.9455147 74 76 72
-1.3842554 -1.6278739 -3.0364935 115 113 109
-1.2628831 -1.624866 -3.1253538 146 149 146
-1.1413686 -1.6209977 -3.2122078 146 146 142
-1.0198764 -1.6162348 -3.2968416 45 46 45
-0.8998482 -1.6123829 -3.3825572 113 114 113
-0.7809428 -1.6092178 -3.469074 135 136 135
-0.6611788 -1.6033621 -3.5496454 128 127 124
-0.5426085 -1.5979334 -3.630322 103 102 100
-0.4240675 -1.5902152 -3.7053373 137 136 136
-0.30667543 -1.5821332 -3.7785451 130 129 128
-0.19060525 -1.5740693 -3.8507497 134 135 133
-2.6152484 -1.4662998 -1.3350009 48 47 40
-2.5480547 -1.4830985 -1.4259952 62 60 53
-2.4787416 -1.4999502 -1.5187929 176 163 148
-2.3936062 -1.5090264 -1.6067696 204 194 176
-2.308749 -1.51895 -1.6964211 205 194 179
-2.222995 -1.5291 -1.7872914 191 181 163
-2.1343718 -1.538226 -1.8781523 207 196 181
-2.045998 -1.5482999 -1.9709347 196 187 172
-1.9563675 -1.5583872 -2.0647466 189 179 163
-1.8655723 -1.5685574 -2.1596696 206 197 183
-1.7761204 -1.5807983 -2.2581582 206 197 185
-1.6850967 -1.5930345 -2.3578854 189 182 170
-1.5977082 -1.6098598 -2.4649909 154 152 148
-1.5005691 -1.6195794 -2.5639484 78 78 74
-1.3983837 -1.625455 -2.6583154 75 74 71
-1.2934638 -1.6291277 -2.7499282 71 72 67
-1.1838763 -1.6278297 -2.8341281 80 81 78
-1.072921 -1.6244447 -2.9147463 89 93 90
-0.96247363 -1.620976 -2.9947734 119 120 118
-0.8521094 -1.6167525 -3.0730462 137 140 138
-0.74292225 -1.6133717 -3.1522684 106 108 106
-0.6341502 -1.6097034 -3.230517 139 138 135
-0.5258398 -1.6057224 -3.3076992 115 115 114
-0.41798523 -1.6012528 -3.383426 112 112 109
-0.3108791 -1.5969057 -3.458832 115 112 110
-0.20434748 -1.5920905 -3.532734 130 129 129
