ply
format ascii 1.0
element vertex 494
property float x
property float y
property float z
property uchar red
property uchar green
property uchar blue
element face 0
property list uchar int vertex_indices
end_header
-9.857221 7.9855585 -21.415804 152 161 175
-8.786916 7.869101 -21.022573 155 165 176
-7.7168784 7.725368 -20.55917 162 171 183
-6.605797 7.4965177 -19.873114 147 156 168
-5.5754614 7.3027864 -19.284496 152 161 173
-4.639215 7.1840777 -18.897184 156 167 178
-3.7454062 7.0927095 -18.583942 151 161 175
-2.8730114 7.0009494 -18.271568 149 160 174
-2.024985 6.918447 -17.985146 148 156 170
-1.2024752 6.870505 -17.7899 140 149 163
-0.39042634 6.806969 -17.555435 132 141 153
0.4060268 6.733897 -17.29779 132 143 156
1.172102 6.5872808 -16.853521 147 158 171
1.883039 6.3711467 -16.23515 146 155 168
2.5240011 6.1089134 -15.504248 146 154 168
3.060922 5.767063 -14.577528 146 154 168
3.3252273 5.129071 -12.912451 141 150 162
3.3853304 4.4204917 -11.083538 140 149 161
3.4549582 3.9112275 -9.766772 148 157 169
3.5317807 3.5287464 -8.775676 150 159 171
3.7114546 3.318554 -8.21901 152 161 175
3.8851178 3.1434858 -7.7532687 152 160 174
4.043901 2.9878435 -7.3388243 143 152 164
4.197202 2.853356 -6.979303 141 150 164
4.347284 2.7367494 -6.666083 141 147 162
4.454821 2.61129 -6.3337955 134 143 157
-9.362765 7.022632 -21.28295 137 146 156
-8.258745 6.8839006 -20.782154 137 146 158
-7.146793 6.7028847 -20.157465 151 160 172
-6.0605006 6.4974623 -19.463913 157 166 178
-5.081579 6.3577123 -18.971096 156 165 177
-4.1687484 6.261119 -18.609802 160 169 181
-3.301673 6.2019386 -18.361519 147 159 170
-2.4404228 6.117541 -18.04027 150 159 171
-1.6093621 6.0617976 -17.805153 145 154 166
-0.79297227 6.0039344 -17.565142 144 153 165
0.007913902 5.950913 -17.340595 150 159 171
0.78823787 5.8509946 -16.981205 151 159 173
1.5272175 5.696657 -16.466877 151 160 172
2.1927397 5.4621696 -15.725448 145 154 166
2.7838955 5.2057147 -14.926518 148 157 171
3.2030404 4.794394 -13.691418 149 158 172
3.3040726 4.1232543 -11.72713 149 159 170
3.382602 3.6194363 -10.252323 149 158 170
3.4962292 3.2742019 -9.236501 154 164 175
3.6512744 3.0400372 -8.5406685 154 163 177
3.83158 2.8715696 -8.034045 153 162 176
4.001201 2.7264292 -7.5963206 153 164 179
4.157774 2.5973132 -7.2064285 159 170 184
4.373407 2.522091 -6.968395 157 166 180
4.547421 2.4353359 -6.7004 148 157 171
4.6576667 2.3282828 -6.378844 150 161 174
-9.888435 6.1160502 -21.410799 141 150 162
-8.778923 6.0021276 -20.930943 137 146 158
-7.6879287 5.87543 -20.409807 137 146 156
-6.54961 5.673774 -19.632765 141 150 163
-5.5330434 5.5316415 -19.06631 153 162 174
-4.5965824 5.432337 -18.650715 158 167 179
-3.715271 5.368404 -18.358755 155 164 176
-2.8524015 5.301964 -18.059988 159 168 182
-2.0109382 5.2377353 -17.770529 158 166 180
-1.1945204 5.196066 -17.559029 158 169 182
-0.39147678 5.1604013 -17.368868 161 171 183
0.39810893 5.0944276 -17.078093 160 171 184
1.1533887 4.9687176 -16.589693 163 172 186
1.8503354 4.792484 -15.936714 158 167 181
2.47361 4.5805 -15.170122 143 152 166
2.9962707 4.3177357 -14.241798 142 151 165
3.3092253 3.9032397 -12.822248 143 152 166
3.372306 3.3668172 -11.01509 138 147 159
3.4806314 3.0123546 -9.8151 136 144 158
3.6332831 2.7750235 -9.004622 137 146 158
3.8020024 2.5985835 -8.397244 154 163 177
3.974514 2.4580688 -7.9101944 159 170 183
4.1275516 2.3309853 -7.46996 168 179 192
4.290363 2.229302 -7.1141777 170 181 192
4.5998735 2.2132325 -7.033082 162 171 185
4.640026 2.078766 -6.5779443 155 166 180
-9.281663 5.095 -21.026299 167 176 186
-8.164398 4.9802265 -20.472937 171 180 190
-7.0516376 4.839726 -19.817928 152 161 173
-5.9795194 4.6908226 -19.133167 149 158 170
-5.0293694 4.6038213 -18.704632 154 163 177
-4.130059 4.537732 -18.36351 160 171 186
-3.2686238 4.49046 -18.100342 151 162 175
-2.4118788 4.419985 -17.74556 150 161 174
-1.5890032 4.3718038 -17.482174 156 166 180
-0.78687125 4.3407226 -17.288433 158 169 182
0.0038216622 4.300632 -17.059965 158 168 182
0.77207696 4.2184515 -16.666534 159 169 183
1.4925903 4.087858 -16.08528 160 169 183
2.1394823 3.909874 -15.322534 159 170 183
2.7124789 3.7195668 -14.517404 164 173 187
3.1588907 3.4665313 -13.474601 165 174 186
3.3969374 3.1073089 -12.028948 169 178 191
3.4937797 2.7399533 -10.563442 169 177 190
3.6306348 2.4917853 -9.567142 172 181 193
3.788827 2.3117323 -8.839123 160 169 182
3.9507668 2.1697264 -8.261674 170 179 191
4.1043973 2.0493808 -7.7708664 166 174 188
4.242013 1.9417595 -7.3319316 170 179 191
4.4759574 1.8913807 -7.1115685 164 173 185
4.7605476 1.8680725 -6.9941225 164 173 185
4.8689837 1.7833831 -6.648703 170 179 191
-9.603433 4.10129 -20.722862 156 165 175
-8.582323 4.0514297 -20.39125 144 153 165
-7.5143085 3.964981 -19.878218 147 158 169
-6.4242573 3.8421724 -19.187061 173 186 196
-5.4371333 3.752512 -18.665598 175 187 202
-4.5137506 3.6821265 -18.243149 172 185 199
-3.663209 3.6529856 -18.026968 162 174 189
-2.8013613 3.5924728 -17.65778 182 192 206
-1.9694878 3.5371141 -17.316208 197 207 217
-1.1736435 3.5154696 -17.141174 203 212 223
-0.3868904 3.4876444 -16.93699 182 190 204
0.3864471 3.4519167 -16.695702 172 179 192
1.1322584 3.3819788 -16.291073 153 162 174
1.8093556 3.245015 -15.567736 136 145 159
2.4009156 3.0768137 -14.70058 141 150 163
2.9076662 2.8988762 -13.793724 158 169 182
3.2539654 2.6548219 -12.580648 200 207 216
3.4688165 2.3951237 -11.303361 184 193 206
3.6295972 2.1722965 -10.2094965 147 156 168
3.7944613 2.004028 -9.379629 137 144 157
3.9383898 1.8612832 -8.675283 143 152 164
4.0832167 1.7461046 -8.104425 162 172 183
4.212212 1.6447748 -7.6020684 174 183 195
4.3996625 1.5806508 -7.2748356 168 178 190
4.687862 1.5595384 -7.1471295 191 198 211
4.8580565 1.5048075 -6.8669314 239 242 242
-8.655193 3.0119703 -19.539396 220 226 233
-7.750907 2.9972796 -19.3677 212 219 230
-6.738118 2.931596 -18.868654 193 205 216
-5.7513423 2.8599794 -18.334944 169 180 193
-4.8426228 2.8096883 -17.941032 178 190 201
-3.956273 2.7547302 -17.520023 181 192 203
-3.1159775 2.7122495 -17.18084 226 234 242
-2.3202946 2.6930785 -16.990858 205 213 221
-1.5420524 2.6848588 -16.870657 177 188 198
-0.76777047 2.6734388 -16.730867 217 225 231
-0.00020632603 2.6562455 -16.555698 178 188 198
0.7533591 2.6252503 -16.295774 197 204 215
1.4490895 2.5248797 -15.608693 232 240 248
2.0459373 2.3767755 -14.632954 237 242 247
2.504478 2.1823564 -13.380885 226 232 239
2.8528323 1.988951 -12.144898 228 233 240
3.1426072 1.8259965 -11.103846 227 233 238
3.437225 1.7120147 -10.36751 230 236 241
3.715778 1.6195409 -9.766616 251 254 254
3.9082887 1.5143054 -9.093829 224 228 236
4.072792 1.4203581 -8.493864 240 245 250
4.1760345 1.3240783 -7.884794 225 230 235
4.33939 1.2613144 -7.479233 225 230 237
4.5802183 1.2289965 -7.256513 217 225 231
4.738313 1.1806937 -6.941525 226 232 239
4.927914 1.1461638 -6.7095633 240 243 247
-7.5631547 1.783218 -16.263361 237 239 241
-6.9190416 1.8032871 -16.38105 208 215 220
-6.29773 1.8346754 -16.599676 214 222 228
-5.5108304 1.8196504 -16.39796 193 205 220
-4.800711 1.8292012 -16.417843 163 176 189
-4.0594916 1.8281149 -16.342001 156 167 178
-3.2797399 1.8051935 -16.071934 171 182 193
-2.5276308 1.788606 -15.859683 188 198 208
-1.803113 1.7859182 -15.771343 202 211 219
-1.0789673 1.7799196 -15.654114 211 218 226
-0.368548 1.8171463 -15.91577 195 202 213
0.36786768 1.8355114 -16.01031 183 196 206
1.0842084 1.7965775 -15.606018 165 175 189
1.6956191 1.6848686 -14.575277 195 205 214
2.1215782 1.505625 -12.971078 206 213 222
2.3669808 1.3065118 -11.20944 193 202 212
2.6419044 1.193138 -10.194272 184 194 205
2.9701333 1.1350298 -9.657194 190 200 207
3.3432438 1.1073034 -9.381547 198 207 217
3.6880333 1.077856 -9.093397 219 226 232
4.003293 1.0469116 -8.794814 238 243 245
4.1708283 0.9869308 -8.255759 228 234 239
4.265177 0.9215782 -7.6763215 220 225 232
4.452417 0.88515276 -7.3413086 235 239 243
4.5279994 0.8335766 -6.8839173 239 242 246
4.7021136 0.80600864 -6.627467 217 222 221
-3.3772352 0.49672902 -7.5941677 138 140 134
-3.1496058 0.5148237 -7.8383346 124 126 120
-2.9617705 0.54475766 -8.25954 83 70 72
-2.6538856 0.5579267 -8.424215 76 56 56
-3.955118 0.97112453 -14.594994 115 116 128
-3.317714 0.97758937 -14.631307 139 140 142
-2.5831802 0.9513352 -14.179526 180 189 199
-1.7592387 0.86341983 -12.816481 163 173 189
-1.1447617 0.84195954 -12.445908 166 176 192
-0.4467773 0.653953 -9.628478 122 129 136
-0.003683733 0.61678165 -9.043496 98 105 108
0.40606254 0.6049988 -8.833405 79 85 90
0.80707294 0.5986868 -8.704236 72 76 81
1.2084352 0.59685135 -8.640598 53 57 63
1.6224322 0.6006771 -8.658716 63 67 74
2.1524856 0.6373779 -9.147689 168 179 193
2.5383804 0.6263434 -8.950741 165 176 188
2.778632 0.5876994 -8.362766 125 132 139
2.473179 0.4577344 -6.4872956 85 89 96
2.6812167 0.44113034 -6.2250648 81 86 92
2.8756795 0.4258511 -5.9834795 115 122 131
3.0932658 0.4164771 -5.826264 105 113 122
3.4224489 0.42246094 -5.8837566 141 153 163
3.7864757 0.43151513 -5.9830256 128 133 139
4.078707 0.43169 -5.9588256 136 139 143
4.1754527 0.41252735 -5.669313 133 137 143
-3.2288282 0.14398004 -6.915972 144 148 142
-2.96357 0.14616165 -6.9881635 144 148 142
-2.6857016 0.14813526 -7.049591 129 132 130
-2.3522668 0.1471143 -6.96897 125 131 132
-2.0189764 0.145754 -6.872913 129 133 133
-1.7297642 0.14764243 -6.9293003 125 129 134
-1.3812221 0.14409365 -6.732027 133 134 129
-1.1062514 0.14838897 -6.899475 128 128 123
-1.249677 0.23519978 -10.867184 153 161 163
-0.75870246 0.23754486 -10.923718 168 176 184
-0.2137639 0.19768856 -9.053033 110 116 119
0.199935 0.19366942 -8.827671 114 121 124
0.60181195 0.19146168 -8.686005 71 75 77
1.0010247 0.19062774 -8.607166 97 103 108
1.4056642 0.1910889 -8.586749 93 103 109
1.8456547 0.19515108 -8.726687 136 139 147
2.2371335 0.19358566 -8.615333 122 123 130
2.6095674 0.19114643 -8.466139 151 154 163
2.4088993 0.15291329 -6.745689 124 133 145
2.6034806 0.14587721 -6.4053755 127 136 146
2.758243 0.13833363 -6.0460286 63 62 59
2.9171963 0.13242857 -5.7608643 86 91 92
3.1029005 0.12867403 -5.570888 85 95 100
3.1992729 0.12210724 -5.261997 81 86 84
3.4806535 0.12308821 -5.277865 72 74 79
3.693338 0.12167459 -5.191725 83 87 92
-2.9312427 -0.15633582 -6.5677366 146 148 140
-2.5916798 -0.153462 -6.4259195 105 114 116
-1.6371247 -0.10907826 -4.5454793 59 65 74
-1.4544328 -0.110628285 -4.595549 80 85 92
-1.2461673 -0.11045587 -4.573471 77 80 90
-1.033483 -0.10977547 -4.5303407 65 70 76
-0.8220991 -0.108964495 -4.4819746 2 2 7
-0.6326047 -0.11151999 -4.572591 164 174 179
-0.79250985 -0.20888245 -8.557942 78 73 70
-0.4144752 -0.21684247 -8.855526 96 97 96
-0.005721731 -0.21576418 -8.781996 77 84 84
0.39767838 -0.21372312 -8.669557 65 68 70
0.79905224 -0.21305156 -8.61316 107 100 101
1.2043629 -0.21342884 -8.599287 89 92 96
1.6074805 -0.21325679 -8.563151 114 120 123
1.9781656 -0.20967557 -8.390215 64 44 38
2.3310752 -0.20568457 -8.201837 57 32 21
2.655106 -0.20062697 -7.9720116 68 52 48
2.5194767 -0.16656995 -6.591786 121 130 140
2.6899908 -0.15798397 -6.2290387 78 80 85
2.7821653 -0.14698792 -5.7735825 32 29 18
2.969141 -0.14251168 -5.5773835 103 111 117
2.9948742 -0.13172053 -5.135089 37 37 29
3.1439142 -0.12756239 -4.9546127 42 41 32
3.3538208 -0.12626913 -4.8866696 55 55 52
3.562304 -0.12508892 -4.823443 78 80 82
-2.445213 -0.35743627 -5.218149 137 142 151
-1.8745106 -0.30273402 -4.402307 120 126 133
-1.7071198 -0.30796963 -4.4622855 87 93 102
-1.520071 -0.31059813 -4.4839954 82 87 99
-1.3311545 -0.31361422 -4.511005 19 24 31
-1.147276 -0.31915194 -4.573887 25 28 36
-0.9149508 -0.31069785 -4.436046 66 71 80
-0.69917274 -0.304701 -4.334112 117 125 132
-0.50342673 -0.3062222 -4.339541 203 209 212
-0.3671112 -0.37021583 -5.2283893 78 83 85
-0.14362831 -0.42348048 -5.9592423 164 172 178
0.1552839 -0.49474496 -6.9370832 153 160 166
0.5419297 -0.5603821 -7.8286285 92 82 75
0.86761755 -0.53576183 -7.455823 93 86 83
0.9959341 -0.43865436 -6.0796995 102 102 101
1.2492409 -0.42735347 -5.900111 87 91 97
1.5217599 -0.4254885 -5.8516583 92 96 102
1.780442 -0.42090866 -5.766153 91 95 101
2.0319464 -0.4160622 -5.677483 95 96 99
2.2871068 -0.4129947 -5.613534 103 97 78
2.5485294 -0.4115635 -5.572085 86 76 56
2.736353 -0.39966732 -5.389467 68 60 43
2.8564355 -0.38082397 -5.114672 120 119 117
2.965938 -0.36369723 -4.864882 86 87 86
3.1628382 -0.35899624 -4.7827125 73 75 70
3.340296 -0.35288635 -4.682313 90 92 95
-1.8538666 -0.46988052 -4.137123 67 49 54
-1.7161417 -0.48309132 -4.2377143 61 63 67
-1.5352364 -0.4859336 -4.246724 34 33 38
-1.3432283 -0.48558646 -4.227745 23 19 24
-1.1520673 -0.48550352 -4.211079 45 44 48
-0.95099014 -0.48039433 -4.1509376 65 39 47
-0.7581726 -0.47799554 -4.114483 85 56 65
-0.57341063 -0.48083284 -4.123129 97 68 75
-0.40055597 -0.501569 -4.284638 140 144 152
-0.23706745 -0.58692545 -4.995223 89 92 94
-0.005903731 -0.6067302 -5.14396 163 172 173
0.23395112 -0.60859334 -5.13974 155 160 159
0.4763271 -0.61171097 -5.145953 130 126 119
0.7139241 -0.6086345 -5.100009 150 148 140
0.9465581 -0.60390645 -5.040467 130 131 130
1.1785781 -0.60072976 -4.9941382 116 121 123
1.3981708 -0.5933308 -4.9130225 120 123 125
1.6120371 -0.5859522 -4.8325577 127 131 133
1.8317746 -0.5822632 -4.7829075 131 136 137
2.0411541 -0.5764603 -4.716187 127 132 135
2.2319407 -0.5670928 -4.620774 114 121 124
2.4527528 -0.5663339 -4.595896 123 127 131
2.6453838 -0.5597399 -4.5238614 127 130 132
2.7375343 -0.53457564 -4.3026514 104 104 107
2.8813918 -0.52235645 -4.1869607 120 112 118
3.0421834 -0.5146191 -4.107884 89 89 96
-1.8956927 -0.63815355 -4.0302544 100 105 108
-1.7395277 -0.64696306 -4.0705533 93 97 95
-1.5690384 -0.6518971 -4.0861206 137 145 148
-1.3925328 -0.6553251 -4.09204 124 129 132
-1.2109298 -0.65705377 -4.0872154 133 136 140
-1.024759 -0.6564997 -4.0681496 131 135 138
-0.8396482 -0.65656006 -4.0529027 97 102 105
-0.6553315 -0.6574919 -4.0430117 88 83 88
-0.473526 -0.6627518 -4.0596027 100 70 78
-0.30736297 -0.71161544 -4.342175 93 96 100
-0.115388826 -0.7731613 -4.699547 94 95 96
0.10541162 -0.79103833 -4.7894316 122 127 127
0.3248652 -0.7815509 -4.713335 124 130 132
0.5318103 -0.7618381 -4.576229 124 131 134
0.73419654 -0.7487671 -4.479822 120 127 130
0.9325576 -0.7383189 -4.3996735 123 129 131
1.1279681 -0.7297522 -4.331194 119 126 127
1.3195149 -0.7216999 -4.2661624 119 125 128
1.5172954 -0.71872485 -4.2314224 123 128 131
1.7060415 -0.712671 -4.178757 127 131 134
1.8765831 -0.7010964 -4.094118 135 139 143
2.0678396 -0.69869983 -4.0634403 133 140 142
2.2750413 -0.70161515 -4.063658 136 140 144
2.4042706 -0.6819848 -3.9336078 134 139 140
2.5687814 -0.6745027 -3.8743174 116 120 119
2.8417532 -0.6944983 -3.972661 105 112 112
-1.7913932 -0.8119996 -3.9836438 77 82 81
-1.6257094 -0.8184105 -3.99986 88 90 94
-1.4504099 -0.8209846 -3.997145 109 112 116
-1.2744279 -0.8238675 -3.9958305 103 107 111
-1.0952172 -0.82529116 -3.9873524 99 104 107
-0.912847 -0.82444555 -3.9678917 105 110 112
-0.73273355 -0.82576364 -3.958838 105 110 113
-0.5550744 -0.8316931 -3.9717662 106 111 114
-0.38103443 -0.8517202 -4.0515633 129 132 136
-0.20426817 -0.89909786 -4.260267 103 106 108
-0.00654206 -0.9274639 -4.377428 122 125 128
0.19764595 -0.92785126 -4.361938 133 140 141
0.39254326 -0.90651107 -4.2446485 130 137 138
0.57620215 -0.8823287 -4.114893 123 126 126
0.7495011 -0.8584481 -3.9874403 121 126 125
0.91852725 -0.84023476 -3.8871088 123 126 126
1.0776815 -0.8206004 -3.7809048 122 126 126
1.2390574 -0.8080168 -3.7078032 125 129 131
1.4109552 -0.8045526 -3.676867 127 132 131
1.5714303 -0.7960762 -3.6232338 130 133 133
1.7259277 -0.7865697 -3.5652442 130 133 133
1.9099276 -0.7909719 -3.5704231 171 165 155
2.083501 -0.79068124 -3.554329 184 175 164
2.219051 -0.77713984 -3.4788954 183 176 165
2.4678948 -0.8022818 -3.5764985 184 176 168
2.667592 -0.80917794 -3.5921211 184 177 168
-1.8167921 -0.9572019 -3.8489804 31 36 33
-1.6573668 -0.96471083 -3.8644044 44 48 50
-1.4913204 -0.9696843 -3.869475 56 59 63
-1.3199803 -0.9720904 -3.8641815 71 73 77
-1.149802 -0.9762416 -3.8657248 90 93 95
-0.97663224 -0.9789122 -3.861297 93 97 99
-0.80350256 -0.9828408 -3.86173 101 106 109
-0.6319899 -0.9915854 -3.880896 107 114 119
-0.46148196 -1.0095336 -3.9356856 122 129 134
-0.28860787 -1.042557 -4.0484824 89 91 94
-0.10239898 -1.0605993 -4.1022987 81 82 85
0.08981672 -1.0725943 -4.132253 128 128 125
0.27614033 -1.0462513 -4.0146775 126 126 123
0.44903582 -1.0110888 -3.8641894 112 114 112
0.6064234 -0.97139883 -3.6975398 105 110 110
0.7554262 -0.93902695 -3.559861 107 114 114
0.8978503 -0.9117954 -3.4425898 105 106 105
1.0342484 -0.88779885 -3.338323 112 113 110
1.1845164 -0.88047886 -3.2972684 108 110 106
1.3336525 -0.874133 -3.2600713 112 116 116
1.4654746 -0.85899603 -3.1904032 107 112 113
1.6018006 -0.8491193 -3.140663 110 117 117
1.7612491 -0.85211307 -3.138651 121 128 128
1.8924543 -0.8420819 -3.0887501 127 134 132
2.0393724 -0.83998877 -3.0681627 111 118 119
2.1965384 -0.84209776 -3.0629282 110 115 117
-1.7055671 -1.1134926 -3.7793152 15 14 13
-1.5493284 -1.1233335 -3.7981102 13 12 14
-1.3764124 -1.1220222 -3.7790754 13 12 13
-1.2064929 -1.1231499 -3.7682586 40 41 44
-1.0372279 -1.125384 -3.7611089 63 66 68
-0.86844695 -1.1291631 -3.7590446 79 82 86
-0.7013477 -1.1375896 -3.7722957 84 89 90
-0.53499484 -1.1532507 -3.8092287 78 78 81
-0.36633214 -1.1769835 -3.8723142 59 64 67
-0.18909338 -1.1923198 -3.9072576 63 68 71
-0.0070575676 -1.1787018 -3.8472683 82 87 87
0.16858466 -1.1500121 -3.7386222 85 89 91
0.33312106 -1.1135125 -3.6054273 82 87 89
0.48267367 -1.0685502 -3.4458842 84 88 90
0.6186788 -1.0238729 -3.2884269 89 94 95
0.7484151 -0.9888817 -3.1631258 98 103 104
0.8737992 -0.96081537 -3.060803 86 91 92
1.0022693 -0.94367427 -2.9938822 83 87 91
1.135586 -0.9347941 -2.953517 80 84 88
1.2557013 -0.91825926 -2.8892887 82 85 89
1.3753631 -0.9047327 -2.8349202 93 97 99
1.5084653 -0.90167344 -2.813576 99 104 105
1.6296827 -0.89262515 -2.7736945 103 108 109
1.7523961 -0.8857192 -2.7406783 95 102 102
1.9179133 -0.89982927 -2.772619 102 107 108
2.0772073 -0.90932965 -2.7900414 101 106 109
-1.7073678 -1.2239481 -3.6043336 38 34 28
-1.5793309 -1.250777 -3.6692193 33 29 27
-1.4372878 -1.271499 -3.715647 0 1 4
-1.2729907 -1.2754006 -3.7126305 17 17 23
-1.1040577 -1.2751479 -3.6974764 25 23 25
-0.93139195 -1.2697219 -3.6673803 41 43 45
-0.7620279 -1.2674356 -3.6464412 50 55 57
-0.59930956 -1.2781281 -3.662754 49 54 53
-0.43165916 -1.2825816 -3.661011 54 56 58
-0.25996932 -1.2729377 -3.6190774 56 60 62
-0.090428494 -1.2576776 -3.5614533 74 79 80
0.07445116 -1.2323527 -3.4757805 73 77 79
0.22988851 -1.1929661 -3.3511703 73 78 79
0.37274748 -1.1469965 -3.2090292 73 77 79
0.5031801 -1.1004583 -3.0663428 72 77 78
0.6243074 -1.059 -2.9388096 73 77 79
0.73815936 -1.022638 -2.8263028 83 87 89
0.854939 -1.0009055 -2.7548957 87 89 91
0.9773657 -0.9906772 -2.7155209 79 84 87
1.0896125 -0.9737871 -2.6581879 74 79 82
1.2002647 -0.9591839 -2.6074538 76 79 83
1.321639 -0.9550849 -2.5854938 72 75 79
1.438302 -0.9485951 -2.5571785 76 78 82
1.5357658 -0.931526 -2.5006027 81 84 88
1.6684648 -0.9367153 -2.5039268 90 95 98
1.8642515 -0.9740661 -2.5927608 96 98 100
-1.5066886 -1.283841 -3.3262832 20 17 17
-1.4139442 -1.3380227 -3.4533148 23 22 19
-1.2493138 -1.3290755 -3.4169347 93 92 91
-1.1117828 -1.3505987 -3.4587786 33 35 36
-0.9599576 -1.3589861 -3.4666765 47 47 50
-0.801265 -1.3590426 -3.4532337 40 43 43
-0.64319974 -1.3604875 -3.443303 47 49 46
-0.48245442 -1.3553467 -3.416738 58 61 59
-0.31934822 -1.3352205 -3.3526413 53 57 57
-0.16096778 -1.3153732 -3.2896435 65 68 70
-0.007202027 -1.2913307 -3.2165906 69 72 74
0.13974264 -1.2566409 -3.1175983 69 72 74
0.27697662 -1.2149678 -3.0020416 64 66 68
0.40350384 -1.1704956 -2.8804283 70 72 75
0.51684207 -1.1199976 -2.7449334 69 72 74
0.6257743 -1.0822136 -2.6414874 64 66 68
0.733026 -1.0546609 -2.5636714 73 75 78
0.844349 -1.0399916 -2.5176008 82 86 88
0.94934875 -1.0222108 -2.46432 85 90 93
1.0551021 -1.0091028 -2.4226148 80 83 85
1.1654252 -1.0025336 -2.3968074 67 70 73
1.2786123 -0.99938595 -2.3792782 77 80 84
1.3779402 -0.98686135 -2.3395767 79 80 83
1.4908409 -0.9852066 -2.3257906 72 75 77
1.6471134 -1.0103178 -2.374968 70 72 76
1.8070536 -1.0341618 -2.4206746 78 81 83
-1.4897683 -1.3505039 -3.1333585 21 24 26
-1.3353902 -1.3372195 -3.0905578 89 88 87
-1.2107885 -1.3542103 -3.117704 53 50 48
-1.0914454 -1.3824036 -3.1702387 58 58 53
-0.9538544 -1.3925271 -3.1809845 86 83 81
-0.80828357 -1.3925333 -3.1685243 81 79 75
-0.66388553 -1.3950398 -3.161731 52 52 47
-0.5171782 -1.3927402 -3.1440408 52 54 50
-0.36788142 -1.3788755 -3.1003838 53 54 53
-0.22027263 -1.3574928 -3.0401351 58 61 62
-0.07725891 -1.3384827 -2.9855626 64 67 69
0.06108413 -1.3052174 -2.899656 68 72 74
0.19195886 -1.2685945 -2.806916 68 71 73
0.31514212 -1.2318314 -2.7145226 62 64 66
0.42853704 -1.1892782 -2.6100786 66 70 70
0.5347919 -1.1504825 -2.5146112 61 64 66
0.6384594 -1.121336 -2.4408453 58 61 61
0.74120635 -1.0998273 -2.3841608 68 70 72
0.84201163 -1.0815834 -2.3349102 65 68 70
0.94431657 -1.0693297 -2.2988663 69 72 74
1.0502877 -1.0633546 -2.2764845 70 74 75
1.150896 -1.0536205 -2.2461946 70 73 75
1.2548962 -1.0484022 -2.2256665 78 79 80
1.3595667 -1.0445286 -2.2080746 67 68 71
1.4988403 -1.0657618 -2.2434075 72 71 72
1.6390791 -1.0846907 -2.2735283 81 79 72
