ply
format ascii 1.0
element vertex 494
property float x
property float y
property float z
property uchar red
property uchar green
property uchar blue
element face 0
property list uchar int vertex_indices
end_header
4.806469 8.1592655 -22.743431 134 140 155
5.525043 8.145977 -22.099154 134 143 157
6.2417135 8.137025 -21.470736 142 151 165
6.912902 8.068552 -20.68446 149 156 170
7.59845 8.036633 -20.006472 155 162 177
8.290694 8.021189 -19.377108 161 170 184
8.976796 8.004416 -18.748503 166 174 188
9.670845 7.999836 -18.153376 172 179 192
10.411443 8.037904 -17.659695 158 165 177
11.242439 8.144464 -17.315859 158 164 177
12.14936 8.294867 -17.052853 150 157 170
13.0517 8.424527 -16.725409 153 158 169
13.963061 8.54615 -16.363976 154 159 170
14.835852 8.631529 -15.915506 162 167 178
15.625105 8.659929 -15.349348 177 182 193
16.345953 8.64837 -14.708859 182 187 198
17.060875 8.63586 -14.070199 193 198 210
17.833069 8.654718 -13.486895 195 200 212
18.630241 8.6851425 -12.920777 181 188 201
19.449415 8.724317 -12.365069 177 183 197
20.262754 8.758715 -11.798515 181 188 201
21.059147 8.784082 -11.216412 184 191 205
21.85114 8.806637 -10.628727 174 181 196
22.618475 8.818537 -10.026586 171 177 192
23.407314 8.838785 -9.433949 183 189 204
24.197273 8.858912 -8.839975 199 203 218
5.176188 7.2567773 -22.49821 138 146 162
5.8854423 7.2300773 -21.800959 140 151 166
6.587038 7.203769 -21.111622 149 157 176
7.249558 7.1405435 -20.317432 158 166 184
7.9264746 7.1087303 -19.628345 161 170 186
8.631935 7.112438 -19.047771 165 174 190
9.3220005 7.1041446 -18.435377 162 170 184
10.040735 7.1217704 -17.895561 153 160 172
10.827854 7.188619 -17.481827 158 165 178
11.696404 7.303315 -17.178045 157 163 174
12.617863 7.438342 -16.905563 153 158 169
13.528937 7.5520864 -16.562395 153 159 170
14.394929 7.6286364 -16.118408 172 177 188
15.200553 7.665882 -15.578605 152 157 168
15.9611635 7.6776686 -14.98171 153 159 170
16.710278 7.6838994 -14.373772 178 183 194
17.463112 7.6923566 -13.771003 176 181 192
18.26018 7.720603 -13.204823 172 177 188
19.081924 7.7578926 -12.651594 164 169 181
19.879646 7.7833977 -12.0746355 159 164 177
20.680206 7.8089623 -11.495497 159 166 180
21.470215 7.829553 -10.906692 159 166 181
22.237923 7.8414493 -10.304228 170 177 191
23.031828 7.86251 -9.713893 189 195 208
23.787699 7.8701005 -9.105334 213 217 229
24.528254 7.8729486 -8.491983 203 208 219
4.8301263 6.3693695 -22.95179 140 148 164
5.5335464 6.327108 -22.170568 135 146 161
6.250238 6.3178043 -21.520142 135 146 161
6.9170523 6.2594714 -20.700798 135 145 163
7.5966773 6.229608 -19.993298 139 149 168
8.306995 6.2347975 -19.410786 145 155 172
9.011687 6.236675 -18.818789 144 152 168
9.733001 6.2520595 -18.270874 143 151 167
10.47024 6.277319 -17.751974 144 151 165
11.285068 6.348206 -17.363728 143 149 164
12.200775 6.4688964 -17.104307 140 146 159
13.12652 6.581265 -16.800459 138 145 158
14.005939 6.6583447 -16.38391 141 148 161
14.803737 6.689191 -15.837525 144 150 163
15.564992 6.7014947 -15.242314 142 149 161
16.314219 6.70857 -14.634802 143 150 163
17.082838 6.724041 -14.046976 148 155 168
17.867643 6.7455244 -13.47129 151 155 169
18.692415 6.7811747 -12.922647 153 158 172
19.497917 6.8079457 -12.352134 161 166 179
20.3059 6.8344097 -11.778185 165 170 183
21.08804 6.8511786 -11.184438 161 167 182
21.871325 6.867964 -10.589789 164 171 184
22.639965 6.879874 -9.986594 189 194 206
23.42497 6.8966866 -9.390596 187 192 205
24.193922 6.908529 -8.786845 191 197 208
5.1864734 5.426602 -22.595247 158 165 177
5.894876 5.4034686 -21.865133 152 161 173
6.578742 5.365791 -21.081942 145 156 170
7.2621045 5.3397155 -20.358437 142 151 169
7.9724813 5.3426523 -19.75975 136 146 165
8.675442 5.342028 -19.149284 147 157 175
9.35579 5.329123 -18.495638 142 153 168
10.08983 5.3514733 -17.975645 129 137 153
10.894682 5.410395 -17.581238 126 134 150
11.778335 5.5023174 -17.287275 127 136 150
12.719099 5.6106887 -17.027973 130 139 153
13.599104 5.6804934 -16.624218 134 142 158
14.423816 5.7206426 -16.11679 136 143 157
15.195962 5.7370095 -15.5333185 137 144 159
15.966121 5.752167 -14.945396 143 150 164
16.703262 5.7552233 -14.324195 143 149 163
17.455524 5.764224 -13.72029 142 148 163
18.265959 5.792419 -13.164148 155 161 174
19.090397 5.823629 -12.611303 152 157 170
19.900276 5.848937 -12.040897 159 164 178
20.699383 5.870116 -11.458713 162 167 180
21.479462 5.8853273 -10.862492 166 171 184
22.248102 5.897238 -10.2592945 168 173 186
23.018234 5.909536 -9.656787 169 174 187
23.80203 5.925236 -9.0598545 175 180 193
24.674564 5.962273 -8.495217 178 183 197
4.8367467 4.5159583 -23.042908 165 170 181
5.554172 4.4998603 -22.309406 171 177 188
6.2433677 4.4675655 -21.499323 180 188 196
6.9281015 4.4433413 -20.743738 179 186 195
7.6154766 4.4290724 -20.048193 173 181 189
8.3311205 4.437015 -19.466871 167 174 184
9.040518 4.442155 -18.873499 169 177 185
9.7596035 4.453143 -18.308224 193 198 208
10.541966 4.493271 -17.869707 199 205 212
11.397174 4.5603733 -17.535946 186 191 200
12.309704 4.6429143 -17.248362 152 159 172
13.183936 4.7023077 -16.84953 148 155 169
14.002991 4.736703 -16.342741 143 150 166
14.773475 4.7524385 -15.761879 137 143 159
15.529104 4.7630687 -15.162138 134 140 155
16.307886 4.780769 -14.586274 134 141 156
17.056158 4.7891736 -13.979074 134 141 156
17.863527 4.8140726 -13.423098 135 142 157
18.663107 4.835825 -12.854278 143 147 163
19.454336 4.854676 -12.274643 147 152 165
20.276375 4.880458 -11.711264 162 166 182
21.072395 4.899142 -11.126356 178 182 198
21.841032 4.911176 -10.523941 187 192 205
22.632769 4.928231 -9.932604 181 186 200
23.395437 4.9388275 -9.326443 188 193 204
24.207125 4.9595065 -8.740219 182 187 199
5.194097 3.56928 -22.676294 193 199 208
5.904682 3.557193 -21.931356 176 183 196
6.5860395 3.5333338 -21.117569 221 227 232
7.2655516 3.5170596 -20.366966 235 239 243
7.964354 3.5162404 -19.72412 233 237 243
8.695751 3.532243 -19.188017 237 239 243
9.449102 3.5563023 -18.697256 183 188 199
10.201088 3.5777884 -18.18687 166 173 185
11.013265 3.6185646 -17.77811 162 167 178
11.881689 3.6734283 -17.432379 227 229 235
12.738562 3.7192864 -17.024137 203 207 217
13.539056 3.7450762 -16.504492 199 202 214
14.302517 3.7593682 -15.9253235 185 190 202
15.028911 3.7639747 -15.301361 186 189 199
15.835231 3.788573 -14.766747 177 182 193
16.599422 3.8022685 -14.1820755 175 181 192
17.355785 3.8140657 -13.589139 175 180 191
18.149645 3.8337526 -13.02604 175 180 191
18.933344 3.8507428 -12.450329 163 169 184
19.73079 3.870001 -11.880487 165 171 187
20.562208 3.8950648 -11.326802 177 181 195
21.368542 3.9146633 -10.751628 187 192 205
22.05767 3.9132893 -10.113094 211 215 223
22.73491 3.9107692 -9.476094 237 237 242
23.84124 3.9792972 -9.024572 248 248 251
23.959229 3.887695 -8.174352 240 240 245
3.4663405 1.6910288 -13.556793 12 14 16
4.007854 1.7539306 -13.758935 5 4 5
4.718565 1.8814164 -14.541124 122 123 124
6.862821 2.578229 -20.492405 190 197 208
7.587049 2.5914223 -19.946737 179 186 198
8.284913 2.595399 -19.320425 183 192 204
9.02575 2.6137211 -18.817766 184 193 205
9.810984 2.6432135 -18.400856 185 192 205
10.589884 2.668302 -17.939379 192 197 207
11.420961 2.703954 -17.549181 184 192 202
12.248918 2.735763 -17.117783 178 185 196
13.031172 2.7555003 -16.591516 183 190 201
13.767735 2.7652347 -15.994176 175 182 195
14.469679 2.768645 -15.35742 162 168 182
15.205297 2.7788868 -14.766827 177 184 196
16.017204 2.802255 -14.253776 203 207 214
16.738232 2.8097625 -13.645774 196 200 208
17.494568 2.823122 -13.071096 194 200 209
18.30433 2.8443403 -12.5353775 202 208 217
19.132593 2.8674862 -12.004019 197 206 218
19.91437 2.8833354 -11.433482 180 189 203
19.20193 2.6986375 -9.994785 102 105 113
17.979074 2.4609292 -8.437786 124 126 131
18.383314 2.4431682 -7.8441668 64 61 60
18.812496 2.4301248 -7.280802 22 18 17
19.341724 2.4302166 -6.772203 124 125 129
3.7288017 1.1489778 -13.648423 0 0 4
4.3592234 1.2110924 -14.191553 146 160 168
5.058607 1.2765733 -14.726127 20 23 22
5.7953825 1.3371423 -15.122477 60 64 66
6.510654 1.3822397 -15.235552 51 56 54
8.42443 1.6493236 -18.441198 232 236 242
9.246628 1.6822102 -18.195414 208 214 222
10.049728 1.7086474 -17.842604 217 222 231
10.883471 1.7375361 -17.50494 209 215 225
11.719813 1.7645061 -17.126398 207 217 230
12.486439 1.7803775 -16.603941 209 217 228
13.162426 1.7844155 -15.945832 206 214 224
13.824054 1.787509 -15.284671 209 217 228
14.479405 1.79069 -14.632107 235 235 238
15.180624 1.7995473 -14.041999 216 223 233
15.832182 1.8034848 -13.408576 142 147 153
16.479815 1.8076214 -12.7833805 207 216 227
17.010073 1.8011268 -12.075581 211 214 221
16.392357 1.6906697 -10.56008 155 158 165
16.666735 1.6675767 -9.802605 172 171 175
17.291733 1.6766791 -9.300583 234 235 242
17.79089 1.6753961 -8.730073 171 175 175
18.21039 1.6683788 -8.132849 148 144 142
18.638245 1.6629795 -7.558591 130 127 122
19.100597 1.6610292 -7.0150375 110 106 103
19.681488 1.6684458 -6.5277586 56 62 62
3.4364495 0.56400996 -13.375728 41 41 48
4.0207915 0.5859356 -13.8463125 50 50 54
4.6809516 0.6106843 -14.376394 51 51 54
5.414029 0.63736284 -14.907005 113 110 109
6.115581 0.6581489 -15.072233 35 37 35
6.798382 0.67559975 -15.032386 117 121 123
7.5791173 0.69774735 -15.145184 93 94 97
8.330722 0.7164716 -15.066311 15 14 15
9.240729 0.74261504 -15.221511 52 45 46
10.330081 0.7761427 -15.568427 109 104 103
11.120233 0.79280436 -15.267284 46 47 50
11.816123 0.80450875 -14.787669 41 41 46
12.459727 0.8137666 -14.230966 117 117 119
13.084631 0.8223026 -13.6577425 150 158 165
13.4548235 0.82039386 -12.8153305 86 83 81
13.768004 0.8169812 -11.972847 45 39 40
14.174729 0.81801975 -11.2736635 38 33 32
14.872597 0.8305715 -10.85147 164 161 159
15.493541 0.84013283 -10.359804 104 100 97
16.073586 0.8482289 -9.840199 67 60 58
16.829494 0.86257386 -9.436984 6 8 14
17.204628 0.86363304 -8.799426 40 48 55
17.392351 0.85874766 -8.0894375 12 4 8
18.090689 0.8712679 -7.6640606 32 26 26
18.825409 0.88484615 -7.2458167 135 133 129
18.354916 0.85996217 -6.344956 143 149 159
3.52527 0.029305294 -12.408718 166 171 168
3.9928637 0.029228507 -12.362542 174 178 176
4.4906583 0.028294688 -12.350709 202 211 206
5.123133 0.018250152 -12.723716 207 215 216
6.404418 -0.034532852 -14.900205 0 0 0
6.998739 -0.028872361 -14.5892725 8 9 12
7.631084 -0.02471677 -14.340234 64 66 70
8.317493 -0.022352053 -14.16392 11 9 15
9.106066 -0.023357365 -14.124413 155 154 156
10.227622 -0.03615807 -14.5663395 61 44 43
10.733598 -0.021945165 -13.890117 125 123 122
9.3264065 0.05655401 -10.6004305 128 133 135
12.04131 -0.0049719107 -13.008029 77 71 64
12.849932 -0.0006222146 -12.731812 13 6 10
13.069399 0.020017482 -11.804406 79 77 71
13.69775 0.029077021 -11.340969 29 27 30
14.193198 0.0411527 -10.759484 114 118 128
14.861364 0.04928859 -10.33229 135 140 144
12.414058 0.116574906 -7.643998 87 91 92
11.550077 0.14739107 -6.3855867 51 55 65
11.65406 0.15901715 -5.865272 31 33 40
11.866611 0.16824901 -5.4383373 50 54 63
12.13863 0.17621866 -5.0603957 71 75 83
16.779558 0.1281328 -6.675173 31 8 12
17.326824 0.13661107 -6.2457895 55 9 14
16.75195 0.15730084 -5.400349 173 181 186
3.1196024 -0.41040522 -11.190265 133 136 130
3.5329714 -0.42097947 -11.150747 124 126 122
3.9977045 -0.44190198 -11.257893 122 125 120
4.3722143 -0.43171987 -10.890528 40 42 40
4.9742684 -0.47453505 -11.292914 125 128 124
5.770229 -0.54559183 -12.0673685 105 95 65
6.252355 -0.5436701 -11.782117 105 94 68
6.6049933 -0.5194823 -11.191248 97 86 60
6.8960967 -0.4890707 -10.528253 174 168 161
6.6357684 -0.3865717 -8.945189 115 109 98
7.064608 -0.3864166 -8.717542 120 125 122
7.735174 -0.41391632 -8.827019 131 137 136
8.573067 -0.45517746 -9.079571 131 136 137
9.485608 -0.49788055 -9.317139 122 127 128
10.32402 -0.5272912 -9.370596 124 126 129
11.091061 -0.5458863 -9.280048 123 127 129
11.830792 -0.5591718 -9.114751 126 131 130
12.531601 -0.5670137 -8.878549 121 124 124
11.406703 -0.4338966 -7.2354984 167 169 172
11.375059 -0.3927499 -6.5617657 33 35 42
11.468362 -0.3636037 -6.0238023 7 13 18
11.614761 -0.34011075 -5.552821 38 40 49
11.74881 -0.31745178 -5.1023145 44 44 52
12.516972 -0.33407047 -4.9780207 105 100 96
16.10952 -0.5094987 -6.0359755 91 23 27
16.007946 -0.46798357 -5.392759 95 89 82
3.0137107 -0.68701786 -9.254589 97 87 60
3.3776822 -0.7113736 -9.279874 85 75 44
3.7705078 -0.74048764 -9.33647 121 104 78
4.174021 -0.765054 -9.339258 140 125 99
4.594805 -0.788894 -9.323737 99 89 70
5.002423 -0.80241805 -9.209507 104 105 104
5.22667 -0.7593257 -8.622882 124 109 98
5.374931 -0.702848 -7.944941 161 150 143
5.706529 -0.6990968 -7.699095 129 123 118
6.0999947 -0.7089712 -7.555868 102 104 100
6.518864 -0.7219783 -7.4292564 118 121 120
6.962499 -0.7373308 -7.311498 137 140 140
7.548219 -0.77579695 -7.3446383 130 135 136
8.127057 -0.80779207 -7.315001 121 124 126
8.665349 -0.8289591 -7.198433 120 123 125
9.155437 -0.839861 -7.0055494 124 128 130
9.617263 -0.84493816 -6.769932 127 132 132
10.08715 -0.84999937 -6.529117 125 128 129
10.608824 -0.8607021 -6.314456 120 123 125
11.16988 -0.874705 -6.1094217 102 105 109
11.514418 -0.8613235 -5.7556787 7 6 8
11.753485 -0.8366519 -5.3507404 2 4 4
12.050391 -0.8197925 -4.9906774 51 48 53
12.72106 -0.8425811 -4.808295 110 112 114
13.188853 -0.8428681 -4.519301 113 110 110
13.658982 -0.84287536 -4.2259507 67 58 56
2.5599072 -0.7816334 -7.297009 111 98 72
2.8526623 -0.81858355 -7.3781557 95 82 54
3.1574328 -0.85104364 -7.417621 115 103 76
3.487186 -0.88857967 -7.47842 85 73 42
3.8416746 -0.9291172 -7.5451717 111 99 68
4.215402 -0.9689826 -7.5940237 115 102 74
4.525799 -0.9731376 -7.4176173 78 59 37
4.651123 -0.90409 -6.816398 177 172 161
4.944652 -0.90549695 -6.6306777 167 162 150
5.26695 -0.9154281 -6.4895983 156 152 145
5.598684 -0.9261535 -6.3481607 80 82 78
5.935333 -0.93621206 -6.198441 113 116 114
6.304546 -0.95302653 -6.0775747 127 130 130
6.6999173 -0.97375596 -5.9685545 134 138 136
7.0981207 -0.9922343 -5.840772 134 137 137
7.4710293 -1.0025775 -5.6689396 132 135 135
7.834922 -1.0094513 -5.4771385 122 125 125
8.188451 -1.0130928 -5.2680445 119 122 122
8.526724 -1.0130279 -5.041376 103 107 107
8.888245 -1.0167265 -4.8273664 136 139 141
9.253854 -1.0203707 -4.610214 132 135 137
9.586378 -1.0178086 -4.368676 132 135 137
9.892873 -1.0109218 -4.112136 139 140 140
10.177847 -1.0009142 -3.8465984 130 130 133
10.481336 -0.99400985 -3.591935 122 125 127
10.821172 -0.9923751 -3.352457 110 113 115
2.5031438 -0.8819374 -6.097104 62 50 15
2.7483904 -0.91509783 -6.121409 110 99 63
3.0055544 -0.9475047 -6.133024 130 120 90
3.283187 -0.9855798 -6.1636796 124 111 88
3.5785646 -1.0255604 -6.193197 75 65 41
3.8695135 -1.0540062 -6.1581397 67 56 39
4.0354495 -1.0111384 -5.791593 159 155 145
4.288696 -1.0166847 -5.6483974 157 152 143
4.5570455 -1.0273945 -5.5250063 159 152 141
4.8541546 -1.0476543 -5.437665 128 122 115
5.1485295 -1.0635477 -5.3266144 116 113 109
5.43058 -1.0725173 -5.1835084 121 125 122
5.7275887 -1.084869 -5.0498595 120 124 122
6.033311 -1.0980488 -4.915021 125 126 127
6.329728 -1.1065913 -4.759442 127 128 127
6.6198177 -1.1120479 -4.590157 134 137 135
6.9133883 -1.1174763 -4.41829 122 125 125
7.1990256 -1.1199923 -4.2348475 123 126 126
7.475797 -1.1197686 -4.041489 113 116 118
7.751778 -1.1190231 -3.8456194 130 132 134
8.013976 -1.1149601 -3.639858 120 122 124
8.271151 -1.1098369 -3.4313638 118 121 123
8.522192 -1.1035559 -3.220334 141 143 144
8.773308 -1.0974604 -3.0103414 127 129 131
9.034112 -1.0933342 -2.805176 124 127 129
9.333314 -1.0961545 -2.6141064 121 123 126
2.2548668 -0.9197178 -5.17358 71 63 34
2.458244 -0.9530528 -5.189668 74 65 37
2.6662579 -0.98010015 -5.172187 67 58 34
2.887971 -1.0119689 -5.1681924 79 71 47
3.1208637 -1.0447636 -5.160719 71 62 37
3.3623874 -1.076239 -5.140763 69 61 43
3.5691686 -1.0776539 -5.0007315 131 125 118
3.7807648 -1.0811981 -4.8675346 138 132 124
4.0088606 -1.0928826 -4.761817 132 124 118
4.2448936 -1.1064017 -4.6592965 129 121 112
4.492607 -1.1231453 -4.5640087 110 103 96
4.771431 -1.1511544 -4.5008736 85 84 81
5.0149446 -1.160403 -4.3724775 117 118 115
5.2674594 -1.1717088 -4.2475963 109 112 110
5.5198464 -1.1813139 -4.114616 126 129 128
5.7645097 -1.1868044 -3.9673076 120 121 120
6.0162835 -1.1937631 -3.82202 136 137 136
6.2577815 -1.1964389 -3.6634066 132 133 132
6.487367 -1.1949298 -3.4931023 123 126 125
6.7132773 -1.1921815 -3.31944 130 133 133
6.9435997 -1.1905942 -3.148235 116 119 119
7.174065 -1.1888888 -2.9763598 104 107 107
7.389883 -1.1833078 -2.796225 113 116 116
7.601058 -1.1767523 -2.6146946 111 114 115
7.8159676 -1.1713089 -2.4358668 123 128 129
8.027924 -1.1653374 -2.2565951 113 116 118
2.1764457 -0.8617667 -4.074072 207 210 208
2.4193778 -1.0016471 -4.469883 63 54 38
2.6037416 -1.0294198 -4.4502525 78 72 53
2.7970197 -1.058793 -4.430724 94 85 63
2.996564 -1.0867193 -4.4007683 96 88 67
3.199049 -1.1108335 -4.353127 64 58 47
3.3898077 -1.1210808 -4.257332 140 132 126
3.5871005 -1.1336269 -4.166208 127 119 111
3.784308 -1.1436999 -4.0650487 126 118 110
3.990323 -1.1570779 -3.9710288 119 112 102
4.2030144 -1.1718981 -3.8780785 111 100 85
4.4603844 -1.2073854 -3.8372707 80 80 77
4.677384 -1.218732 -3.7270317 73 72 71
4.8967056 -1.229491 -3.6127176 112 115 111
5.108543 -1.2355366 -3.48456 98 100 98
5.3178616 -1.2396189 -3.3502054 128 130 128
5.527983 -1.243311 -3.213678 137 139 137
5.737115 -1.2460041 -3.0737848 139 140 139
5.9316087 -1.2430282 -2.9213085 133 134 132
6.1253886 -1.2398084 -2.7683537 128 129 128
6.316373 -1.2357053 -2.6138082 128 129 128
6.5036516 -1.2305443 -2.457617 117 118 119
6.693759 -1.226392 -2.3035035 114 117 117
6.8722944 -1.2190163 -2.1445787 114 117 119
7.0531344 -1.2125946 -1.9878862 122 125 125
7.254554 -1.2118864 -1.8396721 104 107 109
2.0353825 -0.893354 -3.6426692 128 121 120
2.2319944 -1.0161347 -3.9341006 54 51 37
2.3934972 -1.046903 -3.9252172 58 56 41
2.5581534 -1.0727515 -3.8966048 56 51 36
2.7299693 -1.0999832 -3.8676655 75 70 50
2.904464 -1.1235691 -3.8238578 62 52 36
3.0828302 -1.1456431 -3.771868 185 176 164
3.256417 -1.159368 -3.6937916 187 179 166
3.428236 -1.1690899 -3.602825 194 186 172
3.600685 -1.1774079 -3.5064259 193 184 172
3.7754035 -1.1856908 -3.4082453 184 175 161
3.9511456 -1.1931739 -3.3064845 69 58 45
4.218988 -1.252393 -3.3207707 74 73 71
4.402742 -1.2588087 -3.2093813 76 76 73
4.5890517 -1.2655232 -3.0971854 72 73 70
4.768242 -1.2678024 -2.9744737 81 83 81
4.943952 -1.2679871 -2.8468835 122 125 123
5.1196876 -1.2679112 -2.7183511 135 136 135
5.2895703 -1.2651583 -2.5846078 113 112 112
5.456656 -1.261301 -2.448994 131 133 129
5.6266737 -1.2586665 -2.3155713 128 129 128
5.792709 -1.2545748 -2.1798935 127 128 128
5.9515705 -1.248077 -2.0409293 89 90 91
6.118867 -1.2447253 -1.9069526 137 138 139
6.2917633 -1.2432506 -1.7755367 113 116 116
6.4635935 -1.2413589 -1.6434228 100 103 103
2.0929303 -1.0431808 -3.5603137 73 69 48
2.2302573 -1.0628369 -3.5206714 82 79 57
2.374528 -1.087107 -3.490347 84 78 64
2.5241964 -1.1120696 -3.458214 79 71 50
2.6769922 -1.1346977 -3.416477 68 59 45
2.8392017 -1.1625562 -3.3841665 189 180 166
2.9953742 -1.1788492 -3.320132 188 177 165
3.1481643 -1.1889267 -3.239149 188 179 165
3.3025315 -1.1983888 -3.1550806 188 177 164
3.4555416 -1.2050935 -3.0633874 173 164 150
3.6120307 -1.2130853 -2.9731584 175 166 152
3.7700114 -1.220771 -2.8808737 106 96 83
3.996578 -1.2706962 -2.8701875 66 65 62
4.167595 -1.2814773 -2.777985 80 79 77
4.3306155 -1.2863209 -2.6731012 66 67 64
4.4816055 -1.2839812 -2.5546107 119 120 119
4.629601 -1.2801169 -2.4335575 99 102 100
4.777286 -1.2762457 -2.312711 120 121 120
4.9247055 -1.2723901 -2.1921084 127 128 127
5.07184 -1.2685392 -2.071731 85 84 85
5.2176633 -1.2642583 -1.9509735 134 133 133
5.361564 -1.2593495 -1.8296679 131 133 131
5.5076656 -1.2555023 -1.7100629 117 118 117
5.655353 -1.2523675 -1.5915176 128 130 130
5.7949233 -1.2463385 -1.469897 122 125 125
5.9357977 -1.241026 -1.3495578 120 121 121
1.9800478 -1.068011 -3.2611058 57 51 33
2.1018338 -1.082792 -3.2121816 61 55 38
2.2281077 -1.1008811 -3.1691887 73 61 45
2.3601427 -1.1229963 -3.1331913 55 47 36
2.497438 -1.1469392 -3.0984092 57 50 35
2.6396418 -1.1716447 -3.0621228 45 36 28
2.784121 -1.1938087 -3.0170362 184 176 166
2.9221578 -1.2048557 -2.945613 162 153 143
3.0621755 -1.215697 -2.872147 182 174 163
3.1996655 -1.2223219 -2.7887533 162 157 146
3.3375113 -1.228025 -2.702517 168 159 149
3.477759 -1.2345812 -2.6168873 113 105 97
3.6216428 -1.2427298 -2.5330179 168 160 147
3.8030677 -1.2755189 -2.490276 67 66 63
3.9611053 -1.2892334 -2.411491 69 68 66
4.112473 -1.2971736 -2.3214903 77 77 72
4.249763 -1.2958748 -2.21607 101 102 101
4.379568 -1.2903334 -2.1043248 127 129 126
4.505763 -1.2831905 -1.990775 114 118 116
4.632543 -1.2767885 -1.8788649 104 107 105
4.759245 -1.2707129 -1.7679256 118 119 118
4.8866887 -1.2653072 -1.6583115 115 117 115
5.020345 -1.262945 -1.5526094 137 137 135
5.153405 -1.2603474 -1.44669 113 114 113
5.2786307 -1.254533 -1.337577 105 104 103
5.4022207 -1.2483275 -1.2285807 116 119 117
