ply
format ascii 1.0
element vertex 494
property float x
property float y
property float z
property uchar red
property uchar green
property uchar blue
element face 0
property list uchar int vertex_indices
end_header
-5.994145 4.100252 -10.54407 150 159 173
-5.5446944 4.126988 -10.612549 153 164 177
-5.130432 4.187605 -10.768141 165 174 186
-4.711801 4.2572317 -10.946891 167 177 190
-4.304955 4.355448 -11.199139 158 167 181
-3.9134383 4.4979944 -11.565352 155 166 179
-3.4969187 4.652156 -11.96141 151 162 175
-3.0411034 4.8018746 -12.346024 151 162 175
-2.5563998 4.9642973 -12.763277 152 161 175
-2.0230308 5.100924 -13.114195 148 156 170
-1.4396176 5.1738844 -13.301424 140 148 162
-0.82622033 5.1672654 -13.284069 131 140 154
-0.21194641 5.1015944 -13.114914 129 140 154
0.380193 4.950238 -12.725508 135 144 158
0.9250678 4.7403026 -12.185545 134 143 157
1.4122008 4.504711 -11.579662 138 147 161
1.8784479 4.3499045 -11.181458 139 148 162
2.334402 4.2430086 -10.906417 138 147 159
2.7853825 4.166532 -10.709576 144 152 166
3.2463977 4.1258245 -10.604677 148 157 171
3.7591403 4.1529226 -10.674051 154 163 177
4.283336 4.1849537 -10.7561 149 158 170
4.790234 4.1952047 -10.78217 148 159 172
5.2755375 4.1864023 -10.759273 146 155 169
5.796446 4.2049465 -10.806655 141 150 164
6.2106805 4.149296 -10.663367 139 148 162
-5.776127 3.6307464 -10.572639 144 153 165
-5.341951 3.6673257 -10.678864 144 153 165
-4.912102 3.7145965 -10.816211 149 157 171
-4.498662 3.7863505 -11.0248375 155 164 178
-4.102881 3.8931308 -11.335428 158 167 179
-3.6968215 4.019897 -11.70419 153 164 177
-3.257814 4.1480303 -12.076912 155 167 178
-2.7903109 4.285212 -12.475958 152 163 176
-2.2839475 4.418442 -12.863475 147 156 170
-1.7225683 4.501336 -13.104443 140 149 161
-1.1223124 4.5172753 -13.150491 142 151 163
-0.5139493 4.4995885 -13.098649 146 155 169
0.08847654 4.4230056 -12.875376 152 160 174
0.6607945 4.2845745 -12.472089 151 160 172
1.1738299 4.069477 -11.845671 150 159 171
1.6570597 3.920504 -11.411749 151 160 172
2.1203144 3.8074903 -11.082511 150 159 173
2.5754757 3.7266793 -10.847016 154 163 175
3.0373254 3.68027 -10.711656 152 159 171
3.520845 3.6694407 -10.679852 152 161 173
4.033278 3.6877186 -10.732757 157 166 180
4.5433736 3.700105 -10.768515 159 170 183
5.0407195 3.700698 -10.769951 158 169 182
5.5507436 3.7096672 -10.79576 155 165 179
6.0967383 3.7392275 -10.88149 161 170 182
6.459614 3.660524 -10.652183 150 159 173
-6.0351706 3.1516407 -10.583109 139 148 160
-5.554451 3.1561837 -10.59806 137 146 158
-5.1229324 3.1922567 -10.718873 137 146 158
-4.6919594 3.236414 -10.866821 139 148 160
-4.294876 3.3173132 -11.138118 144 153 165
-3.881613 3.4060166 -11.435599 157 166 178
-3.4431224 3.4970198 -11.740784 155 164 176
-2.9851868 3.598582 -12.081398 157 166 178
-2.5123048 3.7246516 -12.504263 156 165 179
-1.9889629 3.8288043 -12.853532 154 165 178
-1.4066659 3.8597596 -12.957074 154 163 177
-0.80856174 3.8609948 -12.960849 157 168 181
-0.20849015 3.8328419 -12.865981 160 168 182
0.37787685 3.7553697 -12.605577 164 174 188
0.9233131 3.6117837 -12.123286 161 172 185
1.4265903 3.4739687 -11.660393 155 163 177
1.9069184 3.3711388 -11.31494 147 156 170
2.3645415 3.2810571 -11.012293 145 154 167
2.8269014 3.2282908 -10.834894 139 148 162
3.313225 3.2146611 -10.788844 142 151 165
3.8005552 3.2054558 -10.757643 140 149 163
4.3023014 3.209141 -10.769702 159 169 183
4.7845645 3.1990442 -10.735513 169 180 193
5.27755 3.197348 -10.729514 167 177 190
5.8259993 3.2266695 -10.827593 177 186 198
6.2421293 3.1838675 -10.683666 179 188 200
-5.796985 2.6661375 -10.577662 166 175 187
-5.3339696 2.6793132 -10.629602 180 189 199
-4.8974805 2.7098343 -10.750346 170 179 189
-4.4807606 2.7594185 -10.946698 151 160 172
-4.053817 2.8145266 -11.164952 155 165 176
-3.6262636 2.8852277 -11.44504 157 169 180
-3.156096 2.940381 -11.663443 152 163 176
-2.6895776 3.0223577 -11.988221 151 162 176
-2.2067263 3.1237686 -12.3900585 157 168 182
-1.6706493 3.194519 -12.670269 160 171 184
-1.0899613 3.210281 -12.732386 164 174 188
-0.5010217 3.2101147 -12.731332 162 173 186
0.08696857 3.1780713 -12.603866 154 165 178
0.6543453 3.1040828 -12.310073 160 169 183
1.180352 2.9940424 -11.873339 160 170 183
1.6808257 2.909715 -11.538591 160 169 183
2.1609726 2.8393457 -11.259209 161 170 184
2.6206226 2.7746234 -11.002233 174 183 195
3.0982864 2.7469356 -10.892115 175 182 195
3.5919325 2.7391944 -10.861085 169 178 190
4.080656 2.7300704 -10.8245735 162 171 183
4.5599713 2.7173417 -10.773775 179 186 198
5.02207 2.6978798 -10.696287 170 179 191
5.5367465 2.7076309 -10.734611 175 184 196
5.9541683 2.6721337 -10.593561 176 184 194
6.4606576 2.6789765 -10.620358 182 189 200
-6.0765166 2.1898432 -10.622255 158 168 178
-5.5510035 2.1767411 -10.558341 153 162 174
-5.1021404 2.1940613 -10.64198 154 164 175
-4.667242 2.221726 -10.775781 155 165 177
-4.230285 2.2549105 -10.93634 174 185 196
-3.7875996 2.2936442 -11.123799 171 184 199
-3.3272572 2.3321872 -11.310324 166 179 193
-2.8531961 2.3737092 -11.511277 167 177 191
-2.390795 2.4462304 -11.862529 165 176 188
-1.9052873 2.5313125 -12.274665 177 186 198
-1.3548043 2.565698 -12.440963 203 212 222
-0.7836268 2.5827222 -12.523076 186 195 207
-0.20332289 2.5807245 -12.512958 172 180 192
0.3710052 2.5440407 -12.334681 149 158 172
0.9201812 2.4839947 -12.043157 142 151 163
1.436073 2.4133744 -11.700394 150 159 173
1.9293412 2.3538785 -11.411576 193 200 211
2.4079545 2.3059597 -11.178903 190 197 210
2.8910556 2.278557 -11.04569 168 177 189
3.3811753 2.2641096 -10.97528 156 165 179
3.8657427 2.2502184 -10.907573 162 171 183
4.351653 2.2402396 -10.858832 172 181 192
4.816334 2.2225401 -10.7726755 188 196 206
5.307303 2.219165 -10.755949 179 186 199
5.732056 2.191064 -10.619391 174 183 195
6.2454853 2.1986306 -10.655697 184 194 204
-5.781661 1.6839308 -10.516634 201 210 220
-5.2906613 1.6829779 -10.510263 196 205 217
-4.8623223 1.7037815 -10.639744 175 186 197
-4.4220204 1.7246115 -10.769382 171 184 197
-3.9428406 1.7336439 -10.825347 178 191 204
-3.4850042 1.7560565 -10.964847 172 185 198
-3.0060074 1.773632 -11.074135 187 196 208
-2.5420606 1.8091482 -11.295418 226 232 239
-2.0980513 1.8809656 -11.743297 229 236 240
-1.6023133 1.9404929 -12.114421 194 203 213
-1.0512086 1.9610181 -12.242057 196 206 216
-0.48720634 1.9773438 -12.343474 196 204 214
0.08542236 1.9750589 -12.32872 221 227 236
0.6463843 1.9417778 -12.120508 225 231 238
1.1720839 1.8828547 -11.752279 227 232 239
1.6809868 1.8429645 -11.50286 228 234 241
2.1728897 1.8081738 -11.285286 255 254 255
2.6779163 1.795714 -11.207083 255 254 255
3.1579978 1.7733108 -11.066837 255 254 255
3.650913 1.7633858 -11.004465 249 252 254
4.14112 1.7547592 -10.950199 224 227 235
4.617901 1.7429587 -10.876134 223 228 233
5.078015 1.72782 -10.781248 222 228 233
5.56382 1.7233624 -10.753011 214 220 227
5.897462 1.6763877 -10.459521 226 230 236
6.3301234 1.6625717 -10.372914 253 254 255
-6.0493264 1.2010332 -10.541524 216 222 227
-5.430557 1.1732091 -10.296832 231 235 241
-4.9940257 1.1831785 -10.383802 233 239 246
-4.608584 1.2086726 -10.606986 201 213 223
-4.123926 1.2111245 -10.627972 186 196 210
-3.6224992 1.208637 -10.605619 158 169 182
-3.1482058 1.2158328 -10.668224 184 193 203
-2.6716342 1.2246592 -10.745127 207 215 223
-2.2194722 1.2512875 -10.978185 218 226 234
-1.7575219 1.2866204 -11.287577 209 217 225
-1.2624835 1.3174521 -11.557455 202 210 218
-0.7527472 1.3671781 -11.99303 187 199 210
-0.19864622 1.3899025 -12.191741 163 172 184
0.36372027 1.3739976 -12.051646 175 185 197
0.9004082 1.3392341 -11.746182 203 211 219
1.4002267 1.296602 -11.371746 192 202 209
1.8966428 1.2750696 -11.182368 193 202 212
2.4079633 1.2706846 -11.143364 185 194 206
2.8935328 1.2566813 -11.020029 184 194 205
3.3885038 1.2503715 -10.964161 192 201 212
3.8692186 1.2411491 -10.882763 219 225 232
4.3873715 1.2446907 -10.91327 197 205 210
4.751124 1.2082368 -10.593164 203 214 219
5.013204 1.155203 -10.127756 229 232 236
5.3161755 1.1198933 -9.817751 211 218 222
5.454456 1.0582142 -9.276649 168 171 171
-3.8027074 0.466116 -6.8954134 142 144 140
-3.4704208 0.46461686 -6.8727427 114 110 114
-3.3194346 0.48955268 -7.2409487 85 74 75
-3.0651994 0.50316757 -7.4417195 101 94 97
-3.6465852 0.6749334 -9.980581 157 163 172
-3.2214446 0.6833231 -10.103878 157 161 164
-2.772111 0.6885584 -10.18053 177 188 200
-2.309069 0.6918289 -10.228129 170 180 196
-1.8555616 0.7003778 -10.353735 186 194 204
-0.95361507 0.48621938 -7.187995 153 160 168
-0.6061374 0.47609872 -7.0379114 148 164 171
-0.2756323 0.4711235 -6.963882 114 118 125
0.048505504 0.4711534 -6.9638166 112 122 128
0.37285927 0.4714515 -6.967714 134 143 151
0.70621663 0.47758868 -7.057873 124 132 139
1.2442597 0.5743638 -8.486945 166 177 191
1.6672534 0.5841882 -8.631445 170 181 194
1.9859285 0.560746 -8.284573 163 175 187
1.9171187 0.45328537 -6.69688 126 139 149
2.1416383 0.4355649 -6.4346967 141 148 155
2.369899 0.42286587 -6.2467036 131 136 142
2.633561 0.4185755 -6.1828985 160 164 175
2.936617 0.42078176 -6.2150226 139 144 153
3.3520977 0.43726733 -6.4579573 129 132 136
3.848216 0.4607017 -6.8034377 142 143 150
4.163661 0.46058524 -6.8012233 144 150 155
-3.6847146 0.13517061 -6.400934 152 156 150
-3.3557942 0.1339737 -6.3430557 134 137 135
-2.9584296 0.1295403 -6.1321597 100 100 101
-2.5358474 0.12292781 -5.8183293 92 88 91
-2.2718308 0.12334106 -5.8367095 75 64 67
-1.9884562 0.12266541 -5.8036222 108 98 105
-1.6701002 0.11926876 -5.641985 141 150 155
-1.4582827 0.12363421 -5.8470864 121 122 119
-2.0455067 0.21341246 -10.086109 118 124 139
-1.5628781 0.21176459 -10.0063 126 137 153
-0.77337134 0.14936687 -7.0584707 133 143 149
-0.4396927 0.14783794 -6.9849043 108 115 117
-0.11391847 0.14767683 -6.975916 93 95 99
0.21160637 0.14792068 -6.986041 126 135 144
0.5403041 0.14877611 -7.0250115 143 156 165
0.8945897 0.1533986 -7.241637 60 64 73
1.2711091 0.15827489 -7.4701447 102 106 112
1.6045636 0.15685326 -7.4016414 160 169 181
1.7922685 0.14420561 -6.8040175 122 132 142
2.0113766 0.13751614 -6.487418 119 129 138
2.2204432 0.13198295 -6.2254257 157 165 168
2.4581523 0.12924078 -6.0950165 158 174 178
2.7159526 0.12801918 -6.0362735 168 175 184
3.016824 0.12887295 -6.0752835 139 148 150
3.3647132 0.13142286 -6.1941333 161 170 175
3.7582905 0.13521968 -6.37163 136 136 146
-3.2751992 -0.15100494 -5.9202247 146 149 141
-2.4629846 -0.124030165 -4.862413 24 27 29
-2.158286 -0.11970724 -4.6933985 15 17 23
-1.9218314 -0.11862014 -4.651361 49 48 50
-1.7009457 -0.11834298 -4.641111 48 49 52
-1.478107 -0.11783474 -4.621784 37 38 47
-1.2806121 -0.11952148 -4.688652 51 51 56
-1.1063746 -0.12452491 -4.885807 193 201 206
-1.3246611 -0.18771115 -7.368549 104 101 99
-0.9390914 -0.17974229 -7.056475 101 102 103
-0.60351074 -0.17791834 -6.985766 113 118 121
-0.27625778 -0.17720635 -6.9587355 136 140 143
0.048811756 -0.17769939 -6.9790597 104 109 112
0.377629 -0.17906415 -7.033655 95 99 102
0.70939124 -0.17987995 -7.066684 99 104 108
1.0641453 -0.1841363 -7.2350016 62 46 43
1.3783429 -0.18100448 -7.1128283 62 39 32
1.6684196 -0.17652863 -6.937761 116 117 122
1.9031 -0.16859673 -6.6267004 129 139 148
2.0913796 -0.15934575 -6.263662 62 62 64
2.3278444 -0.15557909 -6.1163116 63 63 62
2.571903 -0.15308309 -6.0189223 100 106 111
2.8432295 -0.15253662 -5.9982347 98 107 111
3.1558368 -0.15409818 -6.0605183 131 133 136
3.5001307 -0.1568169 -6.1683726 120 127 130
3.8307726 -0.15855318 -6.2375755 151 157 161
-3.278878 -0.410413 -5.6779885 79 84 87
-2.27031 -0.3092305 -4.277908 114 119 129
-2.0481944 -0.30591682 -4.232208 93 101 109
-1.8580117 -0.30717492 -4.249779 97 103 112
-1.6721567 -0.30953872 -4.282656 92 97 108
-1.4780489 -0.3108154 -4.3004875 82 87 96
-1.284295 -0.3125852 -4.325147 81 87 96
-1.0820615 -0.31257457 -4.325162 96 102 111
-0.9006827 -0.31997108 -4.4277143 193 202 208
-0.934819 -0.43114263 -5.966879 122 121 119
-0.75614953 -0.4970735 -6.879848 130 131 132
-0.43353128 -0.4960499 -6.865936 133 139 142
-0.1115086 -0.49196386 -6.809622 87 84 83
0.1951956 -0.46395552 -6.422088 182 184 188
0.48153755 -0.4508145 -6.240378 71 70 73
0.72717637 -0.42385408 -5.8673034 77 79 85
0.9612284 -0.4067553 -5.630756 94 96 103
1.2048377 -0.40017715 -5.5398755 92 96 102
1.4643239 -0.40025923 -5.5412207 105 103 97
1.7151916 -0.39830923 -5.5144243 83 77 56
2.0831337 -0.42048955 -5.8218107 50 47 37
2.3772428 -0.42435768 -5.8756022 29 27 25
2.5915394 -0.4146525 -5.7414045 139 139 134
2.7974985 -0.4055583 -5.6156588 183 196 206
3.0645754 -0.40611947 -5.623643 168 174 177
3.214402 -0.39228362 -5.432204 166 175 181
-2.1857276 -0.46951595 -3.9385717 86 72 78
-2.0054095 -0.47047037 -3.9466445 121 125 130
-1.8234061 -0.47118646 -3.952718 124 130 135
-1.6412852 -0.4720339 -3.9598937 132 139 142
-1.4625489 -0.47419792 -3.9781177 129 134 137
-1.2839903 -0.4770641 -4.002234 136 140 143
-1.107013 -0.48160285 -4.040386 53 11 20
-0.9348584 -0.49054867 -4.1155205 81 35 44
-0.797464 -0.52711487 -4.422436 98 99 102
-0.7421667 -0.6626142 -5.559578 118 117 118
-0.4848935 -0.6669073 -5.5956964 158 161 161
-0.2170885 -0.64984566 -5.4526076 152 157 156
0.03570895 -0.6053878 -5.0796027 79 78 77
0.25933555 -0.5736957 -4.813719 166 164 158
0.46875206 -0.5546589 -4.6540337 144 144 139
0.66022485 -0.5332092 -4.4740934 129 132 132
0.8432133 -0.51688975 -4.337204 122 125 125
1.0068098 -0.49732527 -4.1730747 129 131 129
1.167694 -0.48299745 -4.0528913 122 119 119
1.3471439 -0.479278 -4.0217404 112 112 115
1.5245665 -0.47583517 -3.9929106 133 136 138
1.7364037 -0.48270652 -4.05065 138 142 146
1.9224411 -0.48175657 -4.0427437 122 127 128
2.068288 -0.4718083 -3.9593084 124 129 131
2.2648544 -0.47411045 -3.9786973 121 126 127
2.4898863 -0.48156425 -4.0413294 127 132 135
-2.238613 -0.64258426 -3.864446 96 100 102
-2.0545573 -0.64169914 -3.85915 76 81 85
-1.8794476 -0.643709 -3.871267 101 105 109
-1.6984655 -0.6439262 -3.872602 116 125 129
-1.5211712 -0.64576405 -3.8836846 85 87 91
-1.3462124 -0.6492319 -3.904572 107 112 115
-1.1751591 -0.65597576 -3.9451656 106 111 114
-1.0027845 -0.6643708 -3.995691 98 102 106
-0.84608966 -0.6894035 -4.1462946 134 139 142
-0.6872395 -0.7271073 -4.37312 96 97 97
-0.5133263 -0.77419674 -4.6564045 98 101 103
-0.31060964 -0.81547314 -4.9047265 124 129 130
-0.07795783 -0.78974605 -4.750006 128 134 137
0.14041752 -0.7653021 -4.6030025 126 132 135
0.34920028 -0.7498692 -4.5102015 122 128 129
0.5517931 -0.73779607 -4.437609 124 130 133
0.7441061 -0.7223504 -4.3447285 120 126 129
0.9150707 -0.6972756 -4.1939225 121 126 127
1.0703913 -0.67126244 -4.037469 119 124 125
1.2399342 -0.6606463 -3.973636 119 123 127
1.3990242 -0.6479616 -3.8973584 128 133 136
1.576564 -0.64576274 -3.884159 128 135 137
1.7668626 -0.6487004 -3.90186 122 129 131
1.9310485 -0.6423979 -3.8639739 124 129 130
2.0595357 -0.6263204 -3.767283 127 131 133
2.269318 -0.63554734 -3.8228178 119 124 125
-2.0852203 -0.7996835 -3.7455578 52 55 57
-1.9123908 -0.8009857 -3.7516656 54 58 61
-1.7393558 -0.80246043 -3.7585816 53 55 59
-1.5667156 -0.8044743 -3.768023 61 64 66
-1.4007314 -0.8108569 -3.7979295 69 72 74
-1.2369437 -0.8205636 -3.843407 72 73 76
-1.0739899 -0.834241 -3.9074838 106 111 114
-0.90619296 -0.8490273 -3.9767563 132 139 143
-0.7402774 -0.87372136 -4.0924406 99 103 105
-0.57742834 -0.9206392 -4.312229 92 95 97
-0.41376576 -1.0162874 -4.760289 132 138 137
-0.18765342 -1.0033157 -4.699535 133 138 137
0.032407 -0.97974634 -4.589137 127 130 130
0.241723 -0.9546957 -4.4718 124 128 128
0.44414797 -0.93837386 -4.3953514 127 130 130
0.641645 -0.92529917 -4.3341136 124 127 127
0.8237253 -0.9016427 -4.2233057 123 128 127
0.97714835 -0.86189175 -4.037104 125 128 128
1.1303756 -0.8349197 -3.910764 120 123 124
1.2894222 -0.81918585 -3.837068 129 132 132
1.4311937 -0.7976827 -3.7363455 115 119 121
1.5884367 -0.7885571 -3.6936045 115 120 121
1.7592582 -0.7873031 -3.687738 123 125 125
1.8454809 -0.75181156 -3.5214865 115 117 116
1.990387 -0.7440971 -3.4853556 138 138 135
2.1806707 -0.7532262 -3.5281284 101 97 96
-2.177367 -0.97743565 -3.7467797 111 116 117
-1.9908743 -0.9724492 -3.7276597 118 126 128
-1.8183833 -0.9740006 -3.7336025 94 97 99
-1.6464956 -0.9762444 -3.7422 81 85 85
-1.470819 -0.97651404 -3.7432292 83 88 91
-1.3002023 -0.9806766 -3.759182 31 34 38
-1.1293318 -0.98593307 -3.7793286 36 38 38
-0.9633116 -0.9981842 -3.8262887 12 10 14
-0.7941999 -1.0121356 -3.8797667 48 49 51
-0.63648564 -1.0532783 -4.0374823 125 130 130
-0.48242843 -1.1380664 -4.362512 57 62 63
-0.29855517 -1.2260827 -4.699916 180 171 155
-0.07502808 -1.1893411 -4.5590625 162 156 145
0.13549283 -1.1547047 -4.426279 151 143 130
0.33452356 -1.1234385 -4.306416 157 149 138
0.5255758 -1.0990735 -4.213009 135 129 118
0.7048775 -1.0702093 -4.1023536 132 130 121
0.8501888 -1.0132443 -3.8839765 132 128 120
0.96552813 -0.9470424 -3.63019 109 107 105
1.0856512 -0.9047352 -3.4680033 112 116 116
1.1811302 -0.85563505 -3.279776 106 111 110
1.3018895 -0.834081 -3.1971464 114 119 118
1.4314547 -0.8220488 -3.151018 96 100 100
1.5323052 -0.7973341 -3.056272 101 104 104
1.5903205 -0.7564868 -2.8996835 97 100 100
1.6922737 -0.74134296 -2.8416276 108 113 112
-2.0853567 -1.1515169 -3.7338736 18 21 23
-1.9156024 -1.1552609 -3.746001 19 20 24
-1.7637391 -1.1716506 -3.7991352 24 25 26
-1.5894617 -1.1751783 -3.8105607 27 28 28
-1.408433 -1.1739819 -3.8066685 29 30 32
-1.2391042 -1.1836146 -3.8378904 66 68 64
-1.0523657 -1.1770767 -3.8166766 24 25 28
-0.8735654 -1.1785557 -3.8214598 9 12 16
-0.70011026 -1.189893 -3.8582094 58 62 66
-0.5724183 -1.3142296 -4.2613716 48 51 53
-0.37310746 -1.319764 -4.279303 76 81 82
-0.16642636 -1.2816508 -4.155702 91 96 96
0.028491702 -1.2384975 -4.0157595 86 91 92
0.20996276 -1.1938782 -3.871064 87 92 94
0.37855867 -1.1515791 -3.7338936 90 95 96
0.5341345 -1.1090915 -3.5961123 102 105 105
0.67193437 -1.0590551 -3.4338546 101 104 104
0.7789966 -0.98940575 -3.2080028 92 95 95
0.8873158 -0.9437411 -3.0599234 77 82 85
0.9898312 -0.90553814 -2.9360397 87 90 92
1.084659 -0.8705387 -2.8225439 95 100 99
1.2038509 -0.86060405 -2.790321 93 96 96
1.3230999 -0.85266197 -2.7645593 100 103 103
1.4028795 -0.82299006 -2.66834 108 111 109
1.4823266 -0.7980223 -2.587374 107 110 110
1.600334 -0.79602987 -2.5809047 105 110 111
-2.2188606 -1.3552097 -3.8059912 28 27 26
-2.1029348 -1.3975531 -3.9248927 12 11 14
-1.9507846 -1.4216853 -3.9926467 31 34 36
-1.7770116 -1.4335419 -4.0259247 27 29 33
-1.6115173 -1.4557188 -4.088186 9 9 14
-1.4515219 -1.4895755 -4.1832495 2 0 4
-1.2780911 -1.5181441 -4.2634597 2 1 2
-1.0638679 -1.4998989 -4.2121983 6 6 9
-0.8266088 -1.4333396 -4.0252523 9 12 14
-0.63116866 -1.4211905 -3.9911122 50 53 55
-0.43516916 -1.3969208 -3.922934 69 74 75
-0.2420541 -1.3528348 -3.799105 85 89 91
-0.0603809 -1.3034414 -3.6603727 76 81 83
0.108269125 -1.2548985 -3.5240302 76 81 82
0.2631379 -1.2021959 -3.3760073 75 80 81
0.40612715 -1.1554568 -3.2447333 74 78 80
0.5374628 -1.1102458 -3.1177523 79 82 82
0.6514735 -1.0563821 -2.9664733 78 82 84
0.7491507 -0.99978286 -2.807514 79 81 83
0.8426944 -0.9555169 -2.6831908 78 83 85
0.93014973 -0.91682124 -2.5745113 67 69 73
1.0240737 -0.89270926 -2.5067873 77 80 84
1.1348549 -0.88676476 -2.490081 76 78 82
1.2385919 -0.87694794 -2.4625008 104 107 107
1.3190651 -0.8537582 -2.3973677 100 103 103
1.4160056 -0.84404916 -2.370091 78 80 82
-1.544537 -1.1134968 -2.7568212 32 31 34
-2.0482943 -1.6126554 -3.9926534 13 12 13
-1.8696878 -1.6214737 -4.01446 7 6 7
-1.6881744 -1.6294826 -4.0342627 14 14 16
-1.5127511 -1.6461618 -4.0755315 6 5 7
-1.3126302 -1.6369218 -4.052628 6 6 8
-1.1008991 -1.6075777 -3.979952 26 25 26
-0.88683134 -1.5620259 -3.8671505 32 33 35
-0.68253237 -1.5144906 -3.74944 50 53 53
-0.4895244 -1.4674441 -3.6329408 76 80 79
-0.30678162 -1.4169422 -3.5078888 92 97 98
-0.13542476 -1.3620479 -3.3719637 75 80 82
0.023170086 -1.3122787 -3.2487285 65 70 71
0.1697468 -1.2597934 -3.1187708 65 70 71
0.3042754 -1.2082634 -2.9911797 68 71 73
0.43042186 -1.1667194 -2.8883128 67 69 71
0.5451887 -1.1217743 -2.7770267 68 71 73
0.6397316 -1.0607442 -2.6259217 68 72 74
0.72669107 -1.0090283 -2.4978774 99 104 105
0.8091032 -0.9663454 -2.3921962 71 74 76
0.89242417 -0.9350877 -2.3148005 68 71 74
0.99295694 -0.92672414 -2.294081 69 72 76
1.0855303 -0.9133105 -2.2608602 78 79 82
1.1778558 -0.90211195 -2.2331233 62 64 66
1.2761183 -0.89692783 -2.2202759 71 73 76
1.3800504 -0.8962129 -2.2184913 77 80 82
-1.1070383 -0.85545564 -1.8930644 21 19 11
-2.0733194 -1.7430466 -3.8572445 108 111 111
-1.870978 -1.7249107 -3.8170822 53 54 55
-1.679183 -1.7136605 -3.7921574 49 50 51
-1.4861315 -1.6982836 -3.758101 35 38 38
-1.2967148 -1.6834446 -3.7252362 34 36 39
-1.1030098 -1.6574944 -3.6677837 63 66 66
-0.90863764 -1.6206594 -3.5862455 61 66 66
-0.71784097 -1.5747375 -3.4846013 63 66 66
-0.5349659 -1.5239677 -3.3722308 66 69 67
-0.36164796 -1.4687996 -3.2501292 64 67 67
-0.20011179 -1.4151784 -3.1314523 56 58 60
-0.049660992 -1.3573744 -3.0035226 61 64 64
0.08893998 -1.3034797 -2.8842442 64 67 67
0.21655372 -1.2513742 -2.7689269 64 67 69
0.3347119 -1.2045484 -2.6652937 63 66 68
0.45089576 -1.1782147 -2.607005 59 62 62
0.55691767 -1.1423566 -2.5276427 62 65 66
0.64257896 -1.0848126 -2.4002979 58 61 61
0.7137852 -1.0238374 -2.2653635 60 61 60
0.7911247 -0.9864502 -2.182622 62 65 65
0.88287604 -0.9735984 -2.1541696 67 69 70
0.9638111 -0.95271707 -2.1079512 59 62 64
1.0614368 -0.950705 -2.1034834 59 62 64
1.1624613 -0.9518199 -2.1059344 70 72 75
1.206729 -0.9099603 -2.013302 76 79 79
