ply
format ascii 1.0
element vertex 494
property float x
property float y
property float z
property uchar red
property uchar green
property uchar blue
element face 0
property list uchar int vertex_indices
end_header
0.5265375 -1.0338504 0.9062904 77 57 39
0.523967 -1.0351846 0.9030292 91 71 51
0.5202732 -1.0357952 0.9014429 100 78 59
0.51691955 -1.0368699 0.8987682 94 72 53
0.51252896 -1.0370884 0.89808583 89 67 52
0.5079994 -1.0372077 0.8976339 90 68 50
0.503537 -1.0374721 0.89684063 114 90 71
0.49897462 -1.0376829 0.89617 115 91 70
0.49439943 -1.0379819 0.89529043 117 95 77
0.4897584 -1.0383061 0.8943477 116 92 73
0.4850027 -1.0385116 0.8936831 105 81 62
0.48015133 -1.0384811 0.8935746 118 95 74
0.4752821 -1.0382224 0.8940068 86 66 48
0.47047147 -1.0377115 0.8950396 74 56 39
0.46571496 -1.0374956 0.89537483 55 38 25
0.46104863 -1.0370823 0.8961809 73 53 36
0.4563517 -1.0369606 0.89629483 74 54 38
0.45191014 -1.0363529 0.897571 59 40 27
0.44724333 -1.0363243 0.89746493 94 72 54
0.44257608 -1.0362904 0.8973714 79 59 43
0.4379856 -1.0361596 0.8975104 75 55 39
0.43355814 -1.035875 0.8980209 77 58 44
0.42992342 -1.034886 0.9002316 85 65 47
0.42561308 -1.0346602 0.9006069 42 25 14
0.42127657 -1.0344864 0.9008575 44 27 16
0.41770515 -1.0337822 0.90239483 56 39 20
0.5273914 -1.0315516 0.90102524 107 86 64
0.52456987 -1.0327833 0.8976297 80 59 41
0.52102673 -1.0336764 0.8951065 99 77 58
0.5171704 -1.0344917 0.8927789 100 77 58
0.51292413 -1.0351226 0.89092624 76 54 37
0.5080286 -1.0351924 0.8905433 84 63 44
0.50295776 -1.0350653 0.8906777 109 86 65
0.49829447 -1.0355664 0.8891543 131 105 83
0.49341518 -1.0359045 0.8880567 119 93 73
0.48843893 -1.0362388 0.8869652 71 50 34
0.48332122 -1.036389 0.88635916 82 60 42
0.47814092 -1.0364419 0.88600916 83 63 43
0.47293234 -1.0361694 0.88652503 66 48 31
0.46777955 -1.0358816 0.8870844 73 55 37
0.46265066 -1.0357355 0.8872672 65 47 28
0.45766336 -1.0352652 0.8883197 44 24 12
0.4527096 -1.0349385 0.8889908 75 54 38
0.4477909 -1.0346661 0.8895183 93 72 50
0.44295034 -1.0343626 0.8901322 87 64 49
0.43825895 -1.0339596 0.8910168 105 80 61
0.4337963 -1.0334151 0.8922879 80 59 45
0.42945156 -1.0328764 0.8935483 78 55 34
0.42491058 -1.0325948 0.8941157 67 47 28
0.42095855 -1.0319264 0.89573777 71 51 33
0.41714364 -1.0312713 0.89732945 53 34 21
0.41587487 -1.0291446 0.90294576 72 51 35
0.53480476 -1.0299679 0.8923866 117 93 70
0.53138477 -1.0308707 0.8894923 117 93 70
0.527259 -1.0314689 0.8874917 141 116 93
0.52307206 -1.0321552 0.885221 101 79 61
0.5185457 -1.0327268 0.8832838 92 70 51
0.5133163 -1.0327942 0.8828477 114 88 70
0.5079484 -1.0327476 0.8827525 74 52 34
0.5027537 -1.0329267 0.8819785 78 55 38
0.4979071 -1.0337539 0.87925065 106 83 63
0.49248213 -1.0339141 0.87852407 109 84 63
0.48703927 -1.0341932 0.87743545 110 85 63
0.48151746 -1.0345418 0.8761317 111 86 63
0.47585157 -1.0345118 0.87597287 118 93 71
0.47018015 -1.0344414 0.87593675 111 86 65
0.46451738 -1.034345 0.87597924 100 76 57
0.45899513 -1.0338721 0.8771727 112 86 67
0.4534719 -1.033643 0.87762517 151 121 92
0.44798034 -1.0334412 0.8779961 97 76 56
0.4430413 -1.0325769 0.88040483 106 80 61
0.43809226 -1.0319762 0.8820122 95 68 53
0.43334922 -1.0313286 0.8837707 137 110 86
0.42901146 -1.0304861 0.88614 119 93 70
0.4242849 -1.0301012 0.88710123 80 55 37
0.41949758 -1.0298213 0.8877404 125 97 75
0.415772 -1.0289334 0.89027417 119 92 70
0.41234443 -1.0280151 0.89291394 120 92 70
0.5412193 -1.0295538 0.87669647 152 122 100
0.5359619 -1.0297319 0.8758079 124 97 73
0.53010166 -1.0295845 0.8760401 126 101 80
0.52528447 -1.0301304 0.87387234 125 99 77
0.52002186 -1.0304824 0.8723675 111 85 66
0.5140477 -1.0303282 0.87261885 167 136 108
0.5086612 -1.03074 0.87089664 134 107 83
0.50323766 -1.0312912 0.86867976 157 128 101
0.49759358 -1.0318081 0.86657375 149 120 93
0.49168634 -1.0321738 0.8649897 140 111 86
0.48560026 -1.0324224 0.8638097 109 84 59
0.47942543 -1.0327467 0.86235875 106 81 59
0.47312135 -1.0328904 0.8615394 125 100 75
0.46674818 -1.0330381 0.86070305 140 113 87
0.4603924 -1.0329095 0.8608447 128 101 76
0.45419407 -1.0324974 0.8619967 151 121 91
0.44804293 -1.0321898 0.86278135 120 93 74
0.4424339 -1.0313156 0.86559635 169 137 107
0.4372034 -1.0303311 0.86882025 171 136 105
0.43211713 -1.0294898 0.87154526 183 151 119
0.42747796 -1.028508 0.87478906 128 99 76
0.42280328 -1.027759 0.87720686 147 116 91
0.41770464 -1.0274076 0.8781985 145 116 90
0.41271386 -1.0270517 0.87921107 152 121 96
0.40776336 -1.0267267 0.88011664 144 115 88
0.40357745 -1.026091 0.8821584 147 116 91
0.5531592 -1.0276641 0.8613739 182 150 122
0.5454434 -1.0270036 0.8637311 143 114 90
0.5388418 -1.0267822 0.86429495 136 107 80
0.5328027 -1.0268341 0.8637346 166 136 106
0.5272948 -1.027234 0.86173314 154 126 98
0.52123153 -1.0273746 0.8607957 205 176 143
0.51539505 -1.0277554 0.8588562 169 139 106
0.5098066 -1.0285233 0.85529333 132 105 77
0.5036476 -1.0290105 0.8528854 142 113 87
0.49730322 -1.0295393 0.8502913 136 107 82
0.4906069 -1.0298293 0.848687 141 115 87
0.48382 -1.0302801 0.8463978 121 94 68
0.47678694 -1.0303607 0.84566057 119 93 67
0.4696816 -1.0305909 0.8442856 118 91 64
0.46246764 -1.0307827 0.84306747 145 119 89
0.45526114 -1.0307386 0.8428475 162 131 101
0.44815755 -1.0305241 0.84335285 189 156 120
0.44158718 -1.0297633 0.84619915 208 174 141
0.43568394 -1.0286372 0.85062855 146 116 85
0.43029863 -1.0274365 0.85540193 156 126 98
0.4252898 -1.0262896 0.8599695 137 106 81
0.4203015 -1.0253906 0.8634897 150 120 93
0.41511667 -1.0247761 0.86579597 139 109 86
0.409778 -1.024343 0.86732626 150 119 95
0.40393844 -1.0241947 0.86762375 155 123 96
0.39742154 -1.0243318 0.86667573 173 139 111
0.5584295 -1.0241705 0.8464854 187 154 128
0.5494891 -1.0233948 0.8499646 164 133 105
0.54245996 -1.0232804 0.85009545 166 135 108
0.5362035 -1.0235131 0.84845173 183 151 121
0.53009087 -1.0238937 0.8460399 168 138 109
0.5237528 -1.0242671 0.8436526 188 155 128
0.51760584 -1.0249146 0.83983433 127 100 75
0.51080465 -1.0253079 0.8373098 139 112 86
0.50385 -1.0257723 0.83440137 125 98 72
0.4965245 -1.0260878 0.8322512 134 107 81
0.48907316 -1.026529 0.82943094 150 123 95
0.4812456 -1.0265024 0.82904613 151 123 97
0.47339126 -1.0264542 0.82877344 187 154 118
0.46550527 -1.0264759 0.8281299 124 96 66
0.45761287 -1.0264033 0.8279823 153 123 92
0.44966167 -1.026407 0.8274296 148 118 87
0.44197607 -1.0260907 0.8285774 150 119 92
0.43486613 -1.025396 0.8317544 144 115 86
0.4285583 -1.0243628 0.83676374 140 112 84
0.4230631 -1.0231359 0.8428474 129 100 77
0.41768005 -1.0221479 0.84768194 170 138 108
0.41189805 -1.0215489 0.85044444 175 144 109
0.40587318 -1.0211567 0.8521025 182 152 122
0.3994296 -1.0209781 0.8526092 159 127 101
0.39325303 -1.0207292 0.85350394 160 128 102
0.38763842 -1.0203364 0.8551941 141 110 83
0.5790043 -1.0214622 0.81777215 122 93 71
0.565074 -1.0198503 0.8278024 144 115 88
0.5543008 -1.0189173 0.8333775 183 152 119
0.5473962 -1.019103 0.8315036 178 148 119
0.5413483 -1.019666 0.82707804 167 139 109
0.53490406 -1.0202278 0.8226278 159 130 102
0.5280127 -1.020765 0.81830925 150 124 96
0.5200344 -1.0209066 0.81665033 151 125 96
0.51218545 -1.021234 0.8137103 152 123 98
0.50375056 -1.0212775 0.8126938 153 124 97
0.4951474 -1.0212194 0.81237215 152 125 97
0.4864751 -1.0210644 0.8127155 149 121 91
0.4778413 -1.0208912 0.81318974 149 121 90
0.4691577 -1.0215284 0.8080263 142 114 85
0.46046907 -1.0211369 0.8100134 130 104 72
0.45210567 -1.0205798 0.8131794 139 111 80
0.44432622 -1.0197726 0.8181327 149 121 91
0.4370757 -1.0189286 0.8233881 173 141 111
0.42998818 -1.0182776 0.82731533 165 134 100
0.42286605 -1.0178236 0.82986945 184 151 116
0.41515636 -1.0177128 0.8299883 165 131 99
0.40706325 -1.0177472 0.82906574 145 113 86
0.39949894 -1.0175873 0.8295376 132 103 77
0.39250365 -1.0172794 0.83108747 130 102 72
0.38518336 -1.0170978 0.8317308 154 123 97
0.37767333 -1.0169789 0.8319226 165 131 101
0.59256256 -1.0162321 0.7865028 153 127 101
0.5789743 -1.0153942 0.7934874 146 118 92
0.56794953 -1.0149773 0.79645556 138 111 85
0.5595275 -1.015121 0.7939815 161 133 104
0.5507157 -1.0152167 0.7919549 142 115 89
0.5424286 -1.0155252 0.78780633 147 118 93
0.53341186 -1.0157043 0.78489923 156 129 101
0.52394813 -1.0158013 0.78277963 155 128 99
0.5137517 -1.0156114 0.7835193 142 115 87
0.5037578 -1.0155057 0.78341806 153 125 96
0.49375874 -1.0153923 0.7833944 150 124 93
0.48411122 -1.0159283 0.7767496 152 126 94
0.47387734 -1.016806 0.7665316 139 115 88
0.46342912 -1.0159734 0.7738334 125 101 77
0.45345402 -1.0153869 0.77866656 131 107 75
0.4443307 -1.0145242 0.78643435 200 166 129
0.43485874 -1.0142418 0.78820795 224 192 149
0.42565548 -1.0139222 0.7903948 168 138 105
0.41590387 -1.0138689 0.78978384 171 139 108
0.40749937 -1.0134047 0.793548 217 183 142
0.39776072 -1.0133781 0.79266673 216 181 145
0.38767657 -1.0134128 0.79111314 192 158 127
0.37811828 -1.0133132 0.7910011 137 107 78
0.3694436 -1.0130523 0.79264814 156 125 98
0.36243477 -1.0125428 0.797042 169 137 105
0.35422927 -1.0122843 0.79872274 209 174 139
0.6334872 -1.0098841 0.7258232 141 115 89
0.62455887 -1.0101532 0.71863925 157 129 101
0.6107787 -1.0099373 0.71990705 152 125 97
0.595356 -1.009501 0.725133 127 98 73
0.58487123 -1.009682 0.7193368 139 113 89
0.571305 -1.009462 0.7207289 185 156 130
0.5561209 -1.0089322 0.7278384 186 154 123
0.54341394 -1.0087804 0.72808194 184 152 123
0.53184575 -1.0089025 0.7232058 187 155 128
0.5199226 -1.0090466 0.7178265 144 114 85
0.50711614 -1.0090141 0.7157103 119 94 65
0.49447742 -1.0092202 0.7089606 197 166 126
0.47841376 -1.0044144 0.79956865 36 23 11
0.46925855 -1.0041107 0.8035498 15 10 4
0.4595752 -1.0045276 0.7933088 17 9 6
0.43809298 -1.0098537 0.68445593 135 107 72
0.42297578 -1.0098846 0.6806027 120 94 68
0.40798882 -1.0097988 0.67906433 204 172 132
0.3931278 -1.0096629 0.6785335 110 83 56
0.37966353 -1.0092946 0.68284804 136 107 80
0.36439067 -1.0092399 0.68063885 104 73 58
0.35001314 -1.0090522 0.68122566 89 61 39
0.33219042 -1.0092417 0.67368513 117 90 70
0.3205526 -1.0087669 0.680479 166 136 107
0.31417966 -1.0078993 0.69609404 124 97 72
0.30840552 -1.0071139 0.71022296 135 108 86
1.181656 -1.0074182 -0.25174168 153 126 102
1.1259737 -1.0068686 -0.25778243 163 134 109
1.0682069 -1.0062816 -0.26046875 171 140 115
1.0109001 -1.0057064 -0.26466125 183 150 126
0.9578293 -1.0052316 -0.28087327 182 150 123
0.8957631 -1.004557 -0.27438077 186 154 126
0.8353662 -1.0039159 -0.27135608 192 160 132
0.7713535 -1.0031593 -0.25171787 190 158 128
0.71433234 -1.0025995 -0.25854415 190 156 125
0.6583494 -1.0021021 -0.27638966 195 161 129
0.59931463 -1.0015041 -0.27950394 194 161 127
0.539723 -1.00087 -0.27619672 193 160 124
0.474445 -0.99556357 0.7103533 82 67 57
0.4610871 -0.9954246 0.71041095 128 113 103
0.38625425 -0.99798125 -4.6168312e-05 190 157 121
0.30863407 -0.99828535 -0.23656614 193 158 123
0.35654703 -0.9960314 0.34982935 167 138 111
0.32322422 -0.995756 0.3348155 171 148 117
0.29328215 -0.9954338 0.3372343 158 129 114
0.26674306 -0.9951005 0.3495587 135 109 94
0.003621069 -0.9953814 -0.292376 161 128 105
-0.0930322 -0.9948061 -0.38360614 174 140 110
-0.17018287 -0.9941467 -0.4137543 170 134 105
-0.2503166 -0.9934592 -0.44448927 167 131 102
-0.33059946 -0.99274784 -0.4704899 166 130 101
-0.40222085 -0.9920397 -0.47799253 158 124 94
1.2669523 -0.9459079 -0.34486952 181 156 132
1.2049308 -0.9452059 -0.34714687 183 159 139
1.1452364 -0.9443198 -0.35438344 184 157 133
1.0836546 -0.9435341 -0.35877034 187 154 131
1.021748 -0.94274414 -0.36318395 186 158 130
0.9591228 -0.94199175 -0.36652943 182 151 130
0.89638025 -0.94122195 -0.37026173 181 147 126
0.83335155 -0.9404515 -0.37394345 175 142 120
0.77058065 -0.9395821 -0.38005683 175 144 120
0.7077109 -0.93861455 -0.38850182 175 140 115
0.6441753 -0.9376252 -0.39730883 179 145 114
0.58005553 -0.93654346 -0.408195 175 140 107
0.51505065 -0.9353833 -0.42074946 173 137 107
0.44907534 -0.9345099 -0.42620933 176 140 112
0.38270688 -0.9336559 -0.4311112 172 137 112
0.3159491 -0.93279284 -0.43613878 178 144 106
0.24790734 -0.93167645 -0.44693574 177 141 110
0.31571704 -0.960186 0.22029582 129 115 95
0.27809522 -0.9595296 0.21338868 133 122 101
0.24995786 -0.9603969 0.240767 137 104 68
-0.02357477 -0.92842764 -0.4611249 188 152 123
-0.0930153 -0.92749727 -0.4671366 190 155 128
-0.1616953 -0.92669344 -0.4702925 189 157 127
-0.23151165 -0.92579764 -0.47538728 184 151 124
-0.30327255 -0.9247587 -0.48345533 179 144 120
-0.37583598 -0.9237014 -0.49177584 157 123 100
1.2374798 -0.88256717 -0.34720448 162 140 121
1.177034 -0.88152045 -0.35277516 173 148 126
1.1163114 -0.8804392 -0.35870662 179 154 131
1.0547415 -0.87942576 -0.36378166 184 154 133
0.9928206 -0.87839776 -0.36898556 187 157 133
0.9304738 -0.87736964 -0.37414616 189 160 137
0.86759424 -0.87637544 -0.3788671 188 159 134
0.80456185 -0.87530196 -0.3844704 187 159 131
0.7409281 -0.87429357 -0.38927367 192 164 136
0.67729026 -0.87306446 -0.3965783 193 165 135
0.61317325 -0.87172157 -0.4051244 195 167 135
0.54831386 -0.87041205 -0.41321477 193 167 137
0.48277172 -0.8692015 -0.42011073 193 165 133
0.41670933 -0.8680804 -0.42593828 193 165 132
0.35003278 -0.86679715 -0.43354097 192 164 133
0.28300524 -0.8656942 -0.43906236 193 163 134
0.21784134 -0.86574453 -0.4316996 190 162 132
0.22802602 -0.895801 -0.091917306 173 148 123
0.16025487 -0.8894837 -0.15649204 200 168 138
0.013211518 -0.86199945 -0.4528411 191 158 130
-0.056535214 -0.8606408 -0.46097884 184 154 125
-0.12623426 -0.8594373 -0.46736184 181 148 120
-0.19588546 -0.85834193 -0.47252396 179 148 121
-0.26708493 -0.8570289 -0.47999302 173 141 113
-0.33832178 -0.8558071 -0.48642322 166 138 110
-0.40947458 -0.85467434 -0.4918525 165 134 110
1.2682176 -0.8202577 -0.34413984 163 142 120
1.2080269 -0.8189826 -0.349767 172 149 128
1.1474563 -0.81768423 -0.35554245 179 153 131
1.0867507 -0.8162855 -0.3620544 185 158 138
1.0248219 -0.8151054 -0.36686495 187 160 138
0.9624492 -0.8139473 -0.37148312 191 164 140
0.9000402 -0.8126503 -0.3771309 192 165 139
0.8371685 -0.81135494 -0.38273755 189 162 136
0.7738576 -0.8100505 -0.3883821 192 166 140
0.71012634 -0.8087192 -0.39420047 197 171 143
0.64598835 -0.8073207 -0.40049192 197 171 141
0.5814409 -0.80574596 -0.4080657 196 170 140
0.5162462 -0.8042538 -0.41498485 198 172 142
0.45048624 -0.80275446 -0.4219218 197 171 139
0.38423547 -0.80141366 -0.42764932 194 168 136
0.31783018 -0.8004419 -0.43062636 194 167 135
0.2507281 -0.7990293 -0.43683365 196 167 138
0.1824836 -0.7971731 -0.4462618 196 167 138
0.11530666 -0.7963397 -0.4481622 193 162 135
0.04745635 -0.7952355 -0.45203072 194 163 135
-0.021565706 -0.79376614 -0.45853597 190 159 133
-0.09043088 -0.7925348 -0.46328464 186 158 130
-0.1600784 -0.7911639 -0.46901923 180 149 124
-0.2303091 -0.7897495 -0.4750394 181 150 124
-0.3009748 -0.7883411 -0.4809875 174 144 117
-0.37233368 -0.7868727 -0.4873369 169 138 113
1.2394699 -0.75648195 -0.34774032 176 153 132
1.1792831 -0.75488335 -0.3539064 182 158 137
1.1183662 -0.7533651 -0.35959697 184 160 141
1.0569433 -0.75186265 -0.36517763 187 162 137
0.9950475 -0.7503685 -0.37069193 191 166 143
0.93243986 -0.74901545 -0.3753959 191 166 139
0.8695584 -0.7476035 -0.380413 192 167 142
0.8063292 -0.746155 -0.3856157 197 172 148
0.7429098 -0.7445009 -0.39194578 198 173 146
0.67890817 -0.74292624 -0.39781144 197 172 143
0.61449134 -0.7412511 -0.40421316 199 173 144
0.5495332 -0.739647 -0.4101997 197 173 143
0.4840919 -0.7381327 -0.41566798 199 173 143
0.4181923 -0.7364811 -0.4218747 199 173 143
0.35190922 -0.7350709 -0.42673162 199 173 143
0.28530663 -0.7337302 -0.43119064 199 173 142
0.2180901 -0.73209924 -0.4372254 199 171 142
0.15046175 -0.73051953 -0.4429586 196 168 138
0.08195999 -0.72864896 -0.45025876 195 165 137
0.013281961 -0.7270168 -0.45623508 193 162 135
-0.055507336 -0.72556406 -0.46121636 188 160 132
-0.12468441 -0.72410434 -0.46621883 187 159 132
-0.19420502 -0.72265655 -0.4711404 181 152 126
-0.2645774 -0.721028 -0.4770219 179 148 124
-0.33524042 -0.7194533 -0.48259345 172 143 118
-0.40536463 -0.7181798 -0.48652625 167 139 111
1.2697548 -0.6945125 -0.34386787 176 155 132
1.2108197 -0.6922662 -0.351817 178 156 135
1.149662 -0.69070965 -0.3566644 185 161 140
1.0884924 -0.688968 -0.36232433 187 163 141
1.0265219 -0.68741417 -0.36713356 191 166 144
0.964445 -0.6856892 -0.37269098 191 166 143
0.9016458 -0.68416166 -0.3773573 196 173 148
0.8385671 -0.68256277 -0.38232815 197 175 150
0.77542055 -0.6806294 -0.38876635 199 174 150
0.71153986 -0.678969 -0.39398095 200 176 149
0.6472486 -0.67730796 -0.3991857 204 180 152
0.5825522 -0.6756366 -0.40442225 211 186 154
0.5174759 -0.67374796 -0.41060093 204 178 149
0.45190972 -0.6719609 -0.4163173 202 177 148
0.38590187 -0.6702126 -0.421849 202 178 149
0.3195037 -0.66855586 -0.42696607 201 177 148
0.25249156 -0.66657174 -0.43350118 200 174 145
0.1851124 -0.6647661 -0.4392407 200 173 145
0.11729779 -0.6629723 -0.44491345 200 171 144
0.04875375 -0.66095155 -0.45155957 198 169 143
-0.019994715 -0.6591508 -0.4572327 193 164 138
-0.08893696 -0.65749633 -0.4622569 192 163 138
-0.158406 -0.65576184 -0.4676155 188 159 134
-0.22844741 -0.6539469 -0.4733091 184 156 129
-0.2989326 -0.6521281 -0.47900456 177 148 123
-0.36990684 -0.65028715 -0.4847825 172 144 118
1.2414523 -0.63017136 -0.3482577 182 161 139
1.180979 -0.62819237 -0.35397258 190 167 148
1.119491 -0.62652445 -0.35852817 190 167 146
1.0577655 -0.6247816 -0.3633511 194 171 148
0.9959863 -0.62280697 -0.36901772 196 172 151
0.93342763 -0.6210918 -0.37371907 197 174 151
0.8705064 -0.6193728 -0.37842518 199 174 149
0.8076089 -0.6172153 -0.38473094 202 177 152
0.743915 -0.61545044 -0.38958487 204 179 155
0.6799599 -0.61347234 -0.39521074 208 183 158
0.6154505 -0.6117768 -0.39979157 197 174 147
0.5506188 -0.60994625 -0.4048571 210 186 157
0.48540774 -0.60767275 -0.41152844 205 181 152
0.41967037 -0.6055125 -0.417774 208 183 155
0.35350707 -0.60359764 -0.4231137 205 181 152
0.28686404 -0.601547 -0.4289369 206 182 153
0.219656 -0.59933114 -0.43534857 207 181 153
0.15205264 -0.59725916 -0.44122565 202 176 149
0.08401717 -0.5952172 -0.44698232 198 172 144
0.0155869415 -0.5932227 -0.4525565 201 172 147
-0.053397942 -0.59113336 -0.45846295 196 167 140
-0.12226136 -0.58943945 -0.46292984 191 162 138
-0.19221286 -0.58728015 -0.46906683 191 163 135
-0.26260364 -0.5851425 -0.4751141 183 155 127
-0.33337465 -0.5830501 -0.48098737 178 151 123
-0.4031768 -0.5816267 -0.48444432 176 148 120
1.2719113 -0.5683591 -0.34463498 192 169 148
1.2122034 -0.5658554 -0.35128295 194 171 150
1.1509285 -0.5639931 -0.3559017 196 172 151
1.0889163 -0.56239396 -0.35968557 198 174 153
1.0270405 -0.5604678 -0.36449146 200 177 154
0.9650585 -0.5583011 -0.3700452 202 179 156
0.9026262 -0.55613786 -0.37557927 204 181 158
0.83953273 -0.5542349 -0.3802892 205 182 159
0.7763146 -0.5519814 -0.38608992 210 185 161
0.71261096 -0.5497628 -0.39177203 208 185 160
0.64845484 -0.5475395 -0.3974601 212 189 164
0.5838088 -0.5454625 -0.40268236 213 188 162
0.51876855 -0.5432393 -0.40835315 210 186 157
0.45328376 -0.54113543 -0.41364336 212 187 161
0.38734543 -0.5388159 -0.41959664 209 187 159
0.3209822 -0.5366426 -0.42508614 210 185 159
0.2541375 -0.53435975 -0.43090773 211 184 158
0.18686613 -0.5321287 -0.43655974 211 184 156
0.11914826 -0.5298917 -0.4422212 204 177 151
0.051008157 -0.52767634 -0.44780746 205 178 152
-0.017591262 -0.5254362 -0.45346183 201 173 145
-0.086412914 -0.5233785 -0.45854342 198 169 144
-0.1559525 -0.52107036 -0.46439165 198 169 144
-0.22654374 -0.5183554 -0.4714877 190 161 136
-0.29655895 -0.51635015 -0.4763826 184 156 128
-0.36718056 -0.51420677 -0.48169613 179 150 125
1.243337 -0.50369775 -0.34859866 195 172 151
1.182276 -0.50163645 -0.3532758 199 175 156
1.1203923 -0.499923 -0.3569938 200 176 157
1.0586529 -0.49785376 -0.36168215 203 181 160
0.99657816 -0.49575493 -0.36644596 207 183 162
0.9344071 -0.49335626 -0.37202448 208 184 163
0.8717957 -0.49094746 -0.3776239 210 185 164
0.8085445 -0.48882544 -0.382433 210 187 164
0.74509126 -0.48638254 -0.38811237 214 191 166
0.68118644 -0.4839326 -0.39380378 211 188 163
0.6168287 -0.48147655 -0.39950532 214 191 166
0.551962 -0.479375 -0.40423372 214 192 165
0.48675227 -0.47655496 -0.4109128 215 193 167
0.42103454 -0.4740883 -0.41662222 214 191 164
0.3548637 -0.47161528 -0.42234194 211 189 161
0.28823888 -0.4691352 -0.42807418 215 190 164
0.2213315 -0.46700975 -0.43283647 214 189 162
0.15363882 -0.46417928 -0.43950602 210 185 159
0.085940935 -0.4620788 -0.44418824 210 183 157
0.017823879 -0.4598992 -0.44907966 207 180 156
-0.05097607 -0.45739877 -0.45483378 204 175 150
-0.120478146 -0.45466736 -0.461206 201 172 147
-0.19017667 -0.4521871 -0.46689165 197 168 142
-0.26080775 -0.44934043 -0.47356012 191 165 138
-0.3314393 -0.44685295 -0.479251 186 157 132
-0.40004078 -0.445916 -0.48075244 182 152 125
1.2735043 -0.44232255 -0.34445086 201 178 155
1.2131892 -0.43971252 -0.35002378 202 179 158
1.15226 -0.43723524 -0.3552688 203 180 159
1.0898929 -0.43567896 -0.3582716 209 185 164
1.0282996 -0.4331321 -0.36367646 208 185 164
0.96601933 -0.4308748 -0.36837375 208 185 163
0.903663 -0.42823726 -0.37398863 214 190 169
0.8408538 -0.4256025 -0.37959135 213 192 170
0.7775945 -0.42296994 -0.385183 216 193 170
0.71395224 -0.4201856 -0.39113677 215 194 171
0.64967376 -0.41791117 -0.3958511 217 196 172
0.5850333 -0.41563305 -0.40057012 217 196 170
0.52006364 -0.41294807 -0.40626773 217 195 172
0.45462883 -0.40985477 -0.4129461 218 196 170
0.38870844 -0.40715998 -0.41865587 219 196 171
0.3223121 -0.40436867 -0.42459318 217 195 169
0.2553624 -0.40135437 -0.43106237 219 194 169
0.18823013 -0.39904478 -0.43582696 217 192 167
0.12072174 -0.39670986 -0.44064823 215 190 166
0.05286095 -0.39439374 -0.44541994 214 188 164
-0.015690718 -0.3916692 -0.45116958 208 182 156
-0.085042946 -0.388563 -0.45783168 210 181 154
-0.1543987 -0.38596892 -0.4632567 204 176 149
-0.22474669 -0.3828705 -0.46988773 202 174 148
-0.29562595 -0.37976825 -0.47652185 192 164 136
-0.36652994 -0.37703398 -0.48226643 191 161 132
