ply
format ascii 1.0
element vertex 494
property float x
property float y
property float z
property uchar red
property uchar green
property uchar blue
element face 0
property list uchar int vertex_indices
end_header
1.431306 -1.0451314 -2.4230647 128 71 45
1.3170483 -1.0444955 -2.4242933 131 73 50
1.2024947 -1.043536 -2.4247677 129 72 49
1.0888034 -1.0432444 -2.4267929 121 64 41
0.97459424 -1.0424007 -2.4275315 123 62 38
0.8564136 -1.0366999 -2.416938 132 72 49
0.734601 -1.0244445 -2.3910112 134 77 55
0.6182516 -1.0167369 -2.3756533 138 80 52
0.5041347 -1.0102028 -2.3630025 126 62 32
0.39427602 -1.010743 -2.3668935 125 64 35
0.2875287 -1.0222651 -2.3965454 132 75 51
0.1789599 -1.0377299 -2.4355159 136 79 55
0.06772109 -1.0626634 -2.4968262 141 86 61
-0.04882168 -1.0806042 -2.5418124 136 85 62
-0.16827917 -1.0908285 -2.5687144 145 87 64
-0.2888377 -1.0962296 -2.5842957 146 88 67
-0.40432376 -1.0839399 -2.5581372 143 88 66
-0.50927675 -1.0547096 -2.4918737 145 88 66
-0.094098434 -0.13334002 -0.31439498 119 52 31
-0.10091602 -0.12210983 -0.28813785 116 46 27
-0.11487042 -0.122943394 -0.29043165 116 45 21
-0.121690646 -0.11568333 -0.27351454 107 40 16
-0.12796275 -0.10944737 -0.25899363 106 38 20
-0.13654418 -0.1064777 -0.25221196 106 39 17
-0.14684841 -0.10542772 -0.24998753 101 34 12
-0.15743871 -0.104758054 -0.2486646 103 33 12
1.3832529 -0.9369496 -2.4386787 127 74 49
1.2644297 -0.93352807 -2.4325533 123 70 46
1.1490692 -0.9322542 -2.4320145 120 65 40
1.035949 -0.9327413 -2.4360716 116 59 35
0.9246362 -0.93520015 -2.4452913 109 52 27
0.8113811 -0.9362163 -2.4507487 127 70 47
0.6959187 -0.9347513 -2.4497075 132 75 51
0.5793237 -0.9310618 -2.4428198 131 72 47
0.4653535 -0.93080646 -2.4449368 124 62 32
0.35256666 -0.93353075 -2.4548938 120 61 33
0.23990785 -0.9393798 -2.4731 137 82 58
0.1260528 -0.9472059 -2.4965563 146 91 68
0.01024625 -0.9561081 -2.522902 143 90 66
-0.10738446 -0.96046185 -2.5372808 151 96 71
-0.22549896 -0.96180826 -2.5437293 151 96 71
-0.34183836 -0.95675135 -2.533224 153 98 75
-0.45164335 -0.94009817 -2.4919348 151 98 75
-0.2328346 -0.36850318 -0.97706443 140 77 57
-0.10027857 -0.117365584 -0.31059483 140 81 56
-0.11232887 -0.11460977 -0.3036122 144 82 62
-0.12100248 -0.10901873 -0.2890594 137 80 58
-0.1274112 -0.10259774 -0.27225935 112 48 26
-0.13473679 -0.09825302 -0.26096493 105 43 20
-0.1445109 -0.096561775 -0.25673792 101 34 12
-0.1556587 -0.09610325 -0.25580007 100 33 12
-0.16548176 -0.094869606 -0.25278273 99 32 11
1.4535238 -0.8297899 -2.4585917 128 80 58
1.3294648 -0.82428527 -2.4451644 126 79 54
1.2077724 -0.81938785 -2.4335053 110 57 33
1.0895579 -0.8161012 -2.426606 112 57 32
0.97744983 -0.8171313 -2.4325447 119 60 31
0.870571 -0.8233333 -2.4539182 118 63 38
0.76342195 -0.8311592 -2.4801855 121 66 42
0.6584886 -0.84455836 -2.523172 114 49 22
0.5398356 -0.8429911 -2.521459 124 65 39
0.41390452 -0.8268051 -2.47593 150 95 71
0.29470888 -0.81659675 -2.448222 140 85 63
0.17927977 -0.8104422 -2.4326208 144 92 70
0.066178836 -0.81083864 -2.4366772 146 97 74
-0.046924483 -0.8062732 -2.4257994 153 100 75
-0.1585699 -0.80028063 -2.4105892 153 102 78
-0.26863614 -0.7943782 -2.395611 152 100 79
-0.37617007 -0.7863964 -2.3743093 155 104 82
-0.47743505 -0.771539 -2.3321545 154 103 80
-0.0808077 -0.08639237 -0.25992036 133 70 46
-0.10072515 -0.09541777 -0.2875898 122 59 37
-0.11237157 -0.09381538 -0.2830617 119 57 39
-0.122324444 -0.09113236 -0.2752382 108 44 25
-0.13101397 -0.08805132 -0.26618475 102 37 13
-0.14090441 -0.08640151 -0.26146942 102 37 14
-0.15364623 -0.08684519 -0.26312748 100 33 14
-0.16570185 -0.08681315 -0.2633363 102 37 16
1.3964602 -0.7143792 -2.460015 131 84 63
1.2657131 -0.7057528 -2.433286 132 87 64
1.1365808 -0.69647235 -2.4042258 138 93 70
1.0031807 -0.6823978 -2.3585045 142 93 71
0.8887817 -0.6791974 -2.3503284 142 93 70
0.7905229 -0.68892187 -2.3869488 142 93 67
0.72511655 -0.7342609 -2.5473113 141 90 66
0.61941165 -0.74960005 -2.6037734 140 87 62
0.47395644 -0.7145922 -2.4851277 152 99 72
0.34066063 -0.6812788 -2.3720896 154 103 77
0.22513781 -0.6672864 -2.3261836 151 102 77
0.1164204 -0.66487134 -2.3206053 155 107 80
0.0084731 -0.6640707 -2.3206553 152 104 79
-0.09919279 -0.6624609 -2.3178668 157 109 83
-0.20623778 -0.6602366 -2.312912 156 109 85
-0.31123817 -0.6548955 -2.2969973 158 111 88
-0.4160194 -0.6519145 -2.2893353 157 110 87
-0.28725803 -0.348655 -1.2248715 141 89 71
-0.08638166 -0.07398416 -0.2585306 119 56 40
-0.19094245 -0.15807979 -0.5555313 122 61 47
-0.16573016 -0.11783104 -0.41404063 117 59 46
-0.12705217 -0.07736169 -0.2714224 109 50 32
-0.17094359 -0.09706575 -0.3415235 110 52 34
-0.36150587 -0.19661261 -0.6948577 105 49 33
-0.24743289 -0.12048521 -0.4254853 101 38 22
-0.24422604 -0.10953104 -0.3870735 97 33 17
1.435958 -0.591461 -2.4276643 125 84 65
1.3152452 -0.58827305 -2.4177175 136 95 72
1.1818726 -0.57844734 -2.3803933 144 101 77
1.0529366 -0.56902075 -2.3446124 150 105 81
0.9188907 -0.5544846 -2.2876275 154 109 83
0.8089848 -0.5523743 -2.2818809 156 109 84
0.045694284 -0.049520124 -0.202364 126 68 13
0.04334396 -0.05584623 -0.22885905 123 65 9
0.034869865 -0.05818268 -0.23885706 127 69 14
0.020344432 -0.05344504 -0.2194698 132 76 30
0.27572405 -0.55199826 -2.2952068 160 113 88
0.16812521 -0.5496916 -2.288576 157 111 84
0.061763424 -0.5503893 -2.2944617 160 113 88
-0.04489255 -0.5496823 -2.294488 160 115 87
-0.15103477 -0.547613 -2.2888079 156 111 85
-0.25514472 -0.5425311 -2.2704844 156 111 87
-0.35717967 -0.53715 -2.250854 166 121 96
-0.46613216 -0.5425496 -2.276456 164 117 95
-0.6166247 -0.5864196 -2.4639416 162 115 91
-0.6974758 -0.5589685 -2.3515143 166 119 95
-0.12947036 -0.079898044 -0.33417112 130 69 56
-0.15847155 -0.08832366 -0.37018207 114 56 39
-0.21089558 -0.10789509 -0.4534127 103 45 30
-0.2808224 -0.13237645 -0.55764514 97 38 22
-0.39412302 -0.17222776 -0.7273022 95 34 19
-0.58916485 -0.23969868 -1.014633 99 37 22
1.3612453 -0.47114184 -2.397186 134 95 72
1.2295923 -0.46381655 -2.3631852 144 103 80
1.0856552 -0.45011842 -2.2965174 154 114 88
0.958268 -0.44098946 -2.2530377 160 119 94
0.8450068 -0.43685368 -2.2350163 162 121 98
0.034899652 -0.031193107 -0.15646884 111 55 3
0.03196583 -0.034068517 -0.17146395 111 52 2
0.025334915 -0.03511111 -0.1770691 114 55 4
0.017773395 -0.03574057 -0.1805606 113 56 6
0.009967778 -0.03645569 -0.18450353 145 90 45
0.214518 -0.4301993 -2.2195535 120 72 51
0.11116857 -0.42995185 -2.2213907 130 85 61
0.0075811245 -0.42559817 -2.201948 128 79 54
-0.09409194 -0.4216487 -2.1845427 117 72 50
-0.19365957 -0.41696614 -2.1632733 135 92 71
-0.2920163 -0.41370183 -2.1493204 123 77 58
-0.046270054 -0.032290686 -0.16460934 130 52 40
-0.055979155 -0.03412602 -0.17441711 139 75 60
-0.06623879 -0.0357115 -0.18294619 139 79 64
-0.1282386 -0.06849966 -0.35479668 164 110 92
-0.63590235 -0.33033124 -1.7274965 154 104 86
-0.7804051 -0.3607133 -1.889364 156 109 88
-0.83724296 -0.34769577 -1.823595 166 119 98
-0.8719602 -0.32858938 -1.7255929 174 131 107
-0.9362027 -0.32307935 -1.6989673 189 143 122
-0.949444 -0.30193087 -1.5897304 199 152 125
1.0510284 -0.2672578 -1.7839677 141 106 83
1.2654167 -0.3476549 -2.3257952 145 109 86
1.1037858 -0.33193764 -2.2239263 158 121 98
0.94402397 -0.31367865 -2.1046345 164 127 101
0.8213302 -0.30475038 -2.0478132 168 132 105
0.038415264 -0.023870105 -0.15599903 68 17 5
0.033884883 -0.025131479 -0.16476734 69 18 2
0.02917156 -0.026734501 -0.1758752 73 21 3
0.022548543 -0.027746718 -0.18301274 77 25 6
0.013466035 -0.0272361 -0.17983302 99 45 15
0.0045651337 -0.026577288 -0.17563505 137 84 47
0.10242917 -0.21749365 -1.4762269 196 148 105
0.032758314 -0.21326396 -1.4496995 196 150 106
-0.035332873 -0.22175056 -1.5099672 192 146 106
-0.10437542 -0.21880528 -1.4921908 188 143 108
-0.15884833 -0.19797981 -1.3518039 189 142 109
-0.042623606 -0.0248715 -0.16558358 124 58 43
-0.05036635 -0.024936328 -0.16628861 86 34 17
-0.058958154 -0.025477234 -0.17027391 77 29 12
-0.06896418 -0.026548276 -0.17792779 82 32 13
-0.6237713 -0.26273355 -1.8098041 186 149 125
-0.7414166 -0.2754714 -1.9007854 184 147 123
-0.8001574 -0.26547682 -1.834515 183 146 123
-0.8391967 -0.2513982 -1.7396846 185 145 123
-0.8946836 -0.24437405 -1.6935912 187 147 126
-0.9313647 -0.23368433 -1.6218258 190 144 123
1.2126253 -0.21943398 -2.1375248 148 116 94
1.1142933 -0.21961312 -2.1433485 156 124 98
0.9668602 -0.20946962 -2.047884 172 137 112
0.8600377 -0.20672691 -2.024816 178 145 117
0.7630684 -0.20596503 -2.0211668 179 147 116
0.04888001 -0.020806715 -0.19751714 2 1 2
0.03998089 -0.0208892 -0.1987074 61 54 51
0.030932609 -0.020949336 -0.19968012 19 12 9
0.02117958 -0.020689612 -0.19748083 5 2 1
0.01120727 -0.020138264 -0.19237217 32 13 7
0.0033620512 -0.02115102 -0.20282868 70 25 5
0.0063355863 -0.04239212 -0.41527197 221 181 140
-0.012804318 -0.043602556 -0.42816976 212 171 126
-0.031475924 -0.040114123 -0.39402553 212 172 128
-0.048764862 -0.038873356 -0.38231757 213 170 129
-0.03896742 -0.017384464 -0.16687106 70 29 18
-0.046339277 -0.017182054 -0.16514769 57 18 4
-0.05490657 -0.017596353 -0.16964488 56 16 5
-0.062588334 -0.017530715 -0.16930297 66 31 18
-0.074597634 -0.018847847 -0.18297617 63 23 12
-0.64643645 -0.17383058 -1.7573707 194 161 135
-0.73787177 -0.17615509 -1.7843812 190 156 130
-0.8065763 -0.17300078 -1.7556316 189 156 132
-0.87356615 -0.17006585 -1.7290074 189 155 131
-0.92950463 -0.16560838 -1.6866934 180 142 120
-0.9819876 -0.1612559 -1.6452886 168 132 114
0.3579792 -0.035577513 -0.62746626 155 141 125
1.1433277 -0.11695154 -2.103175 161 133 111
1.0347801 -0.11566539 -2.0856678 171 141 115
0.95053077 -0.11708076 -2.1172602 182 153 126
0.86141133 -0.11821278 -2.143843 189 160 133
0.060500514 -0.012671039 -0.21668337 18 12 3
0.047396567 -0.01213092 -0.20736584 18 7 2
0.037428826 -0.012046244 -0.20638399 20 11 4
0.025213268 -0.011387336 -0.19478911 26 17 5
0.0155047225 -0.011164519 -0.19120567 131 90 1
0.008845738 -0.012074014 -0.20863338 148 113 36
0.012174864 -0.02059707 -0.36797398 60 37 24
-0.004720062 -0.020864083 -0.37399444 160 122 89
-0.022256695 -0.021648848 -0.3897455 199 145 101
-0.04281197 -0.02388755 -0.43289533 149 111 79
-0.0613238 -0.023050345 -0.4183439 199 170 149
-0.045786377 -0.010729197 -0.18676573 80 63 65
-0.051179595 -0.009845011 -0.1705411 28 21 18
-0.058018513 -0.009606678 -0.1664936 30 23 21
-0.065602615 -0.009575138 -0.16636212 22 14 8
-0.61497873 -0.094221115 -1.7840825 204 173 144
-0.7085277 -0.09556172 -1.8148379 203 173 144
-0.7818198 -0.09409585 -1.7918333 201 170 146
-0.87995493 -0.09561348 -1.8261799 194 165 140
-0.9261828 -0.091636755 -1.7545372 176 145 122
-0.98849124 -0.08976488 -1.7232682 151 123 105
0.4237568 -0.0072299214 -0.7672329 204 185 159
1.1929866 -0.019567126 -2.2906625 167 148 123
1.0858072 -0.01933255 -2.2934542 180 159 131
0.9808574 -0.019139893 -2.3015542 191 169 139
0.8695129 -0.018828286 -2.294615 194 173 145
0.07675734 -0.003040838 -0.27939755 184 136 0
0.05389993 -0.0027566613 -0.24606994 176 128 2
0.041420374 -0.0027000115 -0.2421448 176 129 2
0.025552137 -0.0025041767 -0.21921776 209 162 2
0.015631072 -0.0024941722 -0.22117254 193 152 58
0.09820029 -0.008782724 -1.1039062 149 131 110
0.038901262 -0.007718324 -0.9700465 154 136 117
-0.0067431577 -0.0073185605 -0.927792 149 131 112
-0.049591005 -0.007167412 -0.9205965 153 135 119
-0.09050825 -0.0069195363 -0.898725 142 124 106
-0.05098612 -0.0026146963 -0.26149204 159 57 56
-0.06372513 -0.002611894 -0.2654572 166 56 55
-0.09003681 -0.0029924244 -0.32961565 115 5 8
-0.09150857 -0.0026338005 -0.2781643 115 7 17
-0.11023659 -0.00272162 -0.29731348 129 21 23
-0.65797144 -0.011727892 -1.790058 209 187 159
-0.7546547 -0.011749052 -1.8262986 205 183 155
-0.8616838 -0.011855788 -1.8784869 199 176 150
-0.93304074 -0.011485252 -1.8492895 181 155 133
-0.9979429 -0.011083499 -1.8133546 151 130 110
-1.0345008 -0.010455448 -1.7349087 129 111 92
0.5691523 0.036976263 -0.9788591 186 173 149
1.2543895 0.088410236 -2.3026729 169 152 126
1.146854 0.08870291 -2.3059769 178 159 133
1.0375638 0.088856965 -2.3057168 198 178 150
0.9299388 0.089148514 -2.308989 203 181 151
0.8223949 0.0894618 -2.3128126 206 184 152
0.40778625 0.051787484 -1.3464599 44 37 26
0.34384108 0.05178623 -1.3440015 35 26 16
0.28096786 0.05191374 -1.344833 38 29 14
0.14653073 0.035978418 -0.93764246 127 100 26
0.16881596 0.056306154 -1.4514085 3 2 5
0.1139906 0.062636316 -1.6090537 154 135 109
0.04161679 0.06566903 -1.6828302 229 202 158
-0.03649721 0.06517921 -1.6675065 57 34 19
-0.1151797 0.06615237 -1.6890757 226 196 152
-0.19776973 0.06790841 -1.7302508 172 143 107
-0.21615885 0.051677313 -1.3200012 100 43 31
-0.24183233 0.044599634 -1.1404392 113 92 80
-0.31045008 0.047320727 -1.2064953 73 51 48
-0.397971 0.051841434 -1.3172427 147 124 109
-0.5911067 0.06782843 -1.7133058 215 193 165
-0.69338214 0.070445456 -1.7754585 212 192 166
-0.7924394 0.07224181 -1.8170259 211 188 161
-0.90033 0.07448521 -1.8695381 206 185 161
-0.9529328 0.072059065 -1.8063241 186 163 138
-1.0000958 0.069657885 -1.7439463 147 129 112
1.3184017 0.19793728 -2.3180976 166 149 124
1.2046403 0.19740565 -2.3110847 180 161 133
1.0959392 0.19762269 -2.3127968 200 177 150
0.9862524 0.19763915 -2.312174 207 186 154
0.87780935 0.19787608 -2.3141189 213 191 159
0.7700002 0.19827168 -2.3179095 213 191 160
0.3761804 0.11476077 -1.3459518 101 91 82
0.31362146 0.11503042 -1.3486167 97 85 76
0.25420418 0.11671923 -1.3677723 120 105 93
0.20477824 0.1250134 -1.4636487 68 58 44
0.15273076 0.13840424 -1.6186459 111 93 77
0.08369635 0.14793973 -1.7287807 225 196 147
0.0031448381 0.14767464 -1.7251073 232 204 159
-0.07702897 0.14766818 -1.7244377 235 209 163
-0.15807712 0.14880894 -1.7370734 231 202 155
-0.24509273 0.153298 -1.7885176 232 203 156
-0.39443204 0.1865015 -2.1726933 204 184 153
-0.32971805 0.12169735 -1.4212053 87 77 68
-0.38115734 0.11717218 -1.3683149 101 88 75
-0.30884433 0.07973678 -0.93446165 133 83 87
-0.114365526 0.022424903 -0.2708744 96 30 32
-0.12461708 0.021976605 -0.26559642 88 32 25
-0.1371797 0.022069752 -0.26658407 85 36 31
-0.14977963 0.02215731 -0.2675066 77 31 25
-0.16498573 0.022651762 -0.27313125 73 26 15
-0.1724907 0.021937082 -0.26478264 73 24 22
1.3562137 0.30307066 -2.2885623 190 168 138
1.2607366 0.30623695 -2.3125775 178 159 132
1.1530259 0.30673745 -2.3165312 200 178 150
1.0424714 0.30646673 -2.3146796 208 186 157
0.93311733 0.3064657 -2.3148575 214 192 163
0.82386404 0.30643806 -2.314835 218 197 167
0.713464 0.30584884 -2.310584 217 197 167
0.37916535 0.1946713 -1.4736036 163 146 130
0.3145863 0.19739127 -1.4942043 49 41 40
0.25311625 0.20382896 -1.5428065 159 143 125
0.22069633 0.24474335 -1.8510875 115 96 84
0.13711715 0.24934982 -1.8859321 167 147 117
0.051099367 0.2564288 -1.9394073 92 79 68
-0.039287288 0.2579721 -1.9511871 115 102 88
-0.12975 0.25752217 -1.9479514 89 75 65
-0.22119644 0.25891268 -1.9585823 113 99 83
-0.3669473 0.3075469 -2.3252127 209 187 157
-0.47602856 0.30860692 -2.3333836 213 192 159
-0.5895368 0.3117764 -2.3574538 218 198 168
-0.6765557 0.3018374 -2.2827268 223 202 174
-0.8627179 0.33399674 -2.5253136 222 202 174
-0.9581619 0.32683128 -2.4714952 224 203 181
-0.2627176 0.07527421 -0.57522464 222 201 177
-0.1458957 0.03507583 -0.2721942 101 53 48
-0.15598415 0.034483433 -0.26774853 103 49 44
-0.16154677 0.032926515 -0.25602907 97 47 45
1.3164328 0.41516995 -2.313139 175 158 132
1.2076529 0.41541365 -2.3151596 194 172 144
1.0983961 0.41547945 -2.3161914 209 187 157
0.98900235 0.41545 -2.3166926 214 192 163
0.879755 0.41542202 -2.3172011 217 195 165
0.7705524 0.41534257 -2.3174224 220 200 169
0.6619122 0.4155042 -2.3189845 218 198 167
0.5521581 0.41482234 -2.3158498 218 198 167
0.44496378 0.41601166 -2.3231342 215 197 168
0.28259894 0.35282397 -1.971744 114 100 86
0.19171414 0.3549146 -1.9839556 118 103 87
0.09932511 0.35541213 -1.987292 131 115 96
0.0067853634 0.35591248 -1.9906454 120 104 88
-0.08621302 0.358022 -2.0029755 110 95 77
-0.18031906 0.36040172 -2.0168188 122 107 91
-0.27870587 0.36723587 -2.055529 136 115 101
-0.42099133 0.41591135 -2.3278427 216 196 166
-0.07891241 0.0489497 -0.27933216 137 80 103
-0.099208735 0.053961687 -0.3074059 96 25 27
-0.11592982 0.055445503 -0.31578237 100 33 30
-0.12840448 0.054430753 -0.31019935 92 40 33
-0.1266331 0.047339574 -0.2706433 83 34 25
-0.12744862 0.042734075 -0.24496485 113 53 41
-0.15157516 0.047405023 -0.27116 75 23 18
-0.15508394 0.04447419 -0.254837 88 38 31
-0.15832236 0.04192251 -0.2406268 94 43 40
1.3758682 0.5256631 -2.319768 173 152 128
1.2632439 0.52448535 -2.31553 188 167 141
1.1540135 0.524564 -2.3168242 205 183 154
1.044672 0.52455366 -2.3177252 213 191 161
0.93434656 0.52394265 -2.315976 216 195 163
0.8257483 0.5241859 -2.3179932 219 199 169
0.71592015 0.52355 -2.3161294 221 201 170
0.60697967 0.52335304 -2.316201 220 200 171
0.49865407 0.52359575 -2.3182132 220 200 169
0.39101338 0.5247188 -2.324117 219 200 171
0.28206992 0.524198 -2.322755 216 198 168
0.17355965 0.52400017 -2.3228188 216 196 164
0.06532303 0.52438307 -2.3254511 214 196 167
-0.04297904 0.5249262 -2.3287933 215 197 166
-0.15121679 0.52472776 -2.328852 213 195 164
-0.25871792 0.5233218 -2.3235593 214 196 167
-0.36655203 0.5234353 -2.3249953 216 197 168
-0.4735801 0.5226835 -2.3225942 219 201 173
-0.55753034 0.5008557 -2.226699 220 199 174
-0.66684556 0.5058996 -2.249973 223 203 173
-0.7838711 0.5148071 -2.290416 224 203 174
-0.899141 0.5205752 -2.3169477 225 205 178
-0.18904047 0.08948127 -0.40253153 106 66 53
-0.15216936 0.06311791 -0.28551304 146 116 99
-0.14939174 0.056239434 -0.25504094 92 42 36
-0.15231599 0.052759275 -0.2396611 85 34 23
1.353251 0.6500204 -2.3753557 189 168 142
1.260554 0.66011834 -2.4133706 208 188 157
1.1302068 0.6507707 -2.380419 214 192 164
1.0096267 0.6454879 -2.362282 217 197 165
0.90080583 0.6471577 -2.3695364 158 142 118
0.78024507 0.6397952 -2.3437674 195 176 148
0.6694792 0.6391186 -2.3424323 220 198 169
0.55863214 0.6380015 -2.3394806 222 200 171
0.44883314 0.6376789 -2.3394341 222 204 173
0.33839843 0.63587236 -2.3339481 220 201 166
0.22901273 0.634958 -2.331726 218 200 170
0.11952725 0.63175863 -2.3211193 218 200 169
0.011239557 0.6290056 -2.3121383 218 199 172
-0.09625695 0.6281154 -2.3099852 217 199 168
-0.2038673 0.6289179 -2.314044 216 197 168
-0.31288537 0.6323305 -2.3276958 218 199 170
-0.42412904 0.6375411 -2.347968 220 200 172
-0.08518229 0.08260263 -0.30808774 125 59 66
-0.09455796 0.07765429 -0.2900267 92 22 16
-0.10641944 0.076350026 -0.28536347 86 21 10
-0.11220824 0.070778675 -0.2649791 92 36 20
-0.1213874 0.068767175 -0.25769287 80 27 14
-0.1330416 0.06866766 -0.25744838 92 35 21
-0.14280513 0.06755606 -0.25347045 86 33 20
-0.14653458 0.06361351 -0.23904172 87 36 26
-0.15423317 0.06212541 -0.23366077 82 32 24
1.4638184 0.79075044 -2.4644852 204 184 155
1.3472699 0.7906952 -2.4656591 206 186 156
1.2345922 0.7930352 -2.4742937 201 181 152
1.1252173 0.79811114 -2.4914632 160 140 115
0.9867955 0.78166205 -2.4415197 201 151 85
0.88748395 0.7952969 -2.4853923 206 188 159
0.7657106 0.7902137 -2.4708714 188 167 143
0.64257956 0.78166586 -2.4455094 177 133 101
0.537638 0.79549956 -2.4900699 206 189 163
0.40657368 0.7691447 -2.409002 238 218 196
0.3052687 0.7970627 -2.4976535 214 197 170
0.190899 0.8057409 -2.5261686 227 209 178
0.07345206 0.8089316 -2.5375237 232 215 186
-0.044759974 0.8094411 -2.5404863 232 216 186
-0.16299967 0.809706 -2.542683 234 217 190
-0.2808343 0.80872446 -2.540969 235 218 196
-0.40001056 0.8113657 -2.5506225 235 217 190
-0.5194965 0.81338674 -2.5583363 235 218 195
-0.6436397 0.82085204 -2.5831635 209 193 174
-0.5151002 0.5474019 -1.7248235 224 203 182
-0.10671739 0.08358637 -0.2667411 156 91 77
-0.11481194 0.08010274 -0.2559187 148 85 72
-0.13425325 0.0858299 -0.27408937 132 75 63
-0.14668415 0.08573287 -0.273929 134 83 69
-0.13837743 0.07295453 -0.23379216 110 76 67
-0.1450078 0.07066783 -0.22670345 83 30 21
1.4054934 0.90653825 -2.4641821 205 185 155
1.2905595 0.9075094 -2.4682682 208 188 157
1.1742821 0.90759563 -2.4699519 212 190 162
1.0559236 0.90588665 -2.4667535 44 35 12
0.93176734 0.8982111 -2.4473143 39 42 14
0.83761823 0.9206757 -2.5099044 219 199 168
0.7193895 0.9201494 -2.5099378 224 205 174
0.6005837 0.91846544 -2.5068133 223 204 177
0.4752575 0.90390414 -2.4685633 106 88 61
0.35827833 0.9002774 -2.4601042 166 151 127
0.24951428 0.9215778 -2.5196939 226 209 182
0.13215098 0.92295325 -2.5249155 210 191 168
0.0144654075 0.92321736 -2.527103 231 217 185
-0.10315439 0.9227693 -2.5273426 232 215 190
-0.22074822 0.9230272 -2.5295117 230 213 186
-0.33809468 0.9225764 -2.5297406 234 215 191
-0.45525956 0.9221252 -2.5299659 230 212 191
-0.57437646 0.92522454 -2.5399227 231 214 191
-0.6862689 0.91740936 -2.5199492 238 221 199
-0.74394834 0.8485709 -2.3324637 233 212 188
-0.46588448 0.45555663 -1.2545047 199 162 154
-0.11899651 0.09038674 -0.2518149 86 26 17
-0.12636833 0.08699325 -0.24262895 79 22 13
-0.13191275 0.08289358 -0.23148954 82 27 17
-0.13889413 0.080460876 -0.22492549 82 28 18
-0.14322542 0.076771654 -0.21489312 81 26 15
1.4591762 1.0192442 -2.4551613 209 186 157
1.3467344 1.0218723 -2.4630115 209 189 159
1.2325368 1.0235026 -2.4684656 213 191 162
1.1169256 1.0241375 -2.4715247 205 185 154
1.0046831 1.0282481 -2.4829676 217 197 169
0.8896953 1.0302324 -2.4892902 222 202 179
0.7729972 1.0304958 -2.4914627 221 203 180
0.65531605 1.029255 -2.4900012 226 207 181
0.5359212 1.0242125 -2.4793432 58 53 28
0.4173247 1.018227 -2.466389 155 141 116
0.30708954 1.0343804 -2.5070064 225 208 187
0.1902941 1.0357641 -2.5118964 227 209 186
0.07328783 1.0376354 -2.5179718 230 212 187
-0.044020392 1.0370725 -2.518149 233 214 187
-0.16114803 1.0365515 -2.518425 232 215 188
-0.27829522 1.0368139 -2.520601 233 215 189
-0.39541516 1.0370009 -2.5225937 226 207 182
-0.5122033 1.0365275 -2.5229814 230 214 194
-0.6246706 1.0290027 -2.5062132 189 173 153
-0.10275628 0.120116726 -0.29553154 108 43 42
-0.114971764 0.118389286 -0.2915035 106 36 29
-0.11408741 0.1029563 -0.25407073 116 51 34
-0.118269116 0.09574338 -0.23663613 125 62 45
-0.12493279 0.09209823 -0.22788513 140 69 48
-0.13664168 0.09309629 -0.23045906 166 85 70
-0.15724663 0.10039848 -0.24843594 212 158 129
