ply
format ascii 1.0
element vertex 494
property float x
property float y
property float z
property uchar red
property uchar green
property uchar blue
element face 0
property list uchar int vertex_indices
end_header
-0.22329606 -0.12811376 -0.39905304 138 122 106
-0.20736285 -0.12894174 -0.40290362 137 123 107
-0.1917006 -0.13016313 -0.4080106 135 118 103
-0.17585894 -0.13156413 -0.41371337 135 119 104
-0.15983775 -0.13320859 -0.42021906 135 117 100
-0.14352922 -0.13509315 -0.42752475 144 122 102
-0.12688242 -0.13727483 -0.4358189 149 124 99
-0.1097075 -0.13967629 -0.44486466 155 126 99
-0.09183007 -0.14217924 -0.45429102 165 131 99
-0.07318827 -0.14475778 -0.46401846 166 132 99
-0.053674575 -0.14722326 -0.4734429 160 128 95
-0.033346463 -0.14964497 -0.48278484 137 114 93
-0.012222057 -0.15209001 -0.4922607 126 108 92
0.009705421 -0.15440458 -0.501372 126 108 91
0.032409824 -0.15670595 -0.51049715 131 111 94
0.05621727 -0.15992503 -0.5226801 137 114 93
0.081820585 -0.16463736 -0.5398385 155 123 93
0.045517705 -0.07064188 -0.23225784 26 24 19
0.052872125 -0.06683739 -0.22045334 25 22 20
0.060152955 -0.064098336 -0.21209982 4 1 1
0.07168209 -0.06597242 -0.21902213 37 27 19
0.18667352 -0.15105323 -0.50343436 156 119 85
0.20448232 -0.14754832 -0.4933657 175 139 104
0.28515214 -0.18553655 -0.6224981 153 116 81
0.31830207 -0.18849732 -0.6345259 151 113 79
0.3518709 -0.19111384 -0.64546764 149 112 79
-0.2197564 -0.14537568 -0.39817202 135 118 103
-0.2035604 -0.14653067 -0.40251845 134 118 102
-0.18720295 -0.14784572 -0.40732992 130 113 99
-0.1709514 -0.1496079 -0.41340393 132 115 100
-0.15440133 -0.15158767 -0.42011544 134 116 98
-0.13762057 -0.15395534 -0.4279435 140 118 96
-0.12045558 -0.15670644 -0.43688548 148 121 96
-0.102472134 -0.15940063 -0.44571987 153 123 94
-0.083747774 -0.1621559 -0.45477644 163 128 95
-0.06422149 -0.16488959 -0.46382463 165 130 95
-0.043918528 -0.16768658 -0.4731037 163 128 92
-0.022826996 -0.17067902 -0.48298967 144 116 90
-0.0008656694 -0.1738777 -0.49351847 122 104 87
0.022004249 -0.17689629 -0.5035959 123 105 88
0.045743838 -0.17983347 -0.5134993 125 104 88
0.07052867 -0.18321395 -0.5247304 129 107 87
0.04252449 -0.08219397 -0.23606324 21 16 14
0.049762174 -0.0766699 -0.22085585 12 9 7
0.057767928 -0.073945254 -0.21364732 25 21 18
0.068338186 -0.07477231 -0.21669197 24 18 15
0.19089612 -0.18229242 -0.53004444 151 113 79
0.19286701 -0.1632397 -0.47607866 150 113 78
0.28067786 -0.21319745 -0.62370723 149 113 80
0.31172398 -0.2146655 -0.62992096 147 109 75
0.34803683 -0.21910949 -0.64493114 146 110 77
0.3828389 -0.22189203 -0.65512437 145 110 77
-0.23113528 -0.16138627 -0.39080352 133 117 103
-0.21541773 -0.16313736 -0.3961371 131 115 100
-0.19922882 -0.16488543 -0.4014914 130 114 98
-0.18279889 -0.16684163 -0.40738198 129 113 98
-0.16618042 -0.16913387 -0.41412657 127 110 95
-0.14928001 -0.17179038 -0.4218014 132 112 93
-0.13202536 -0.17488538 -0.430597 141 117 96
-0.11390931 -0.17787194 -0.43917233 146 119 93
-0.09501496 -0.18084575 -0.44776246 153 122 92
-0.07541575 -0.18398578 -0.4568116 163 127 93
-0.055013906 -0.18717399 -0.4660297 163 128 93
-0.033785444 -0.19039913 -0.47539002 161 126 89
-0.0117266355 -0.1938942 -0.48547688 149 117 87
0.011268201 -0.19775143 -0.49652812 124 103 83
0.03524791 -0.20147891 -0.507313 119 101 84
0.060393233 -0.2058317 -0.5197358 120 100 84
0.07716796 -0.1870702 -0.473698 55 43 34
0.046474423 -0.08718579 -0.22139934 85 84 81
0.054838967 -0.08399688 -0.21390492 13 12 10
0.064414434 -0.08331638 -0.21277297 10 7 5
0.09472701 -0.10599052 -0.27144602 106 79 54
0.21832617 -0.21510288 -0.5524562 146 109 73
0.27718028 -0.24376883 -0.6278655 145 109 74
0.30821222 -0.24467582 -0.6320011 140 105 70
0.34320876 -0.24819462 -0.6429236 141 105 72
0.37937775 -0.25182724 -0.65420175 141 107 74
-0.22760561 -0.18021709 -0.38954082 134 117 102
-0.21147774 -0.18233447 -0.39515173 131 115 99
-0.19503272 -0.18463318 -0.40118456 129 113 97
-0.17849079 -0.18740591 -0.4082801 126 110 94
-0.16141282 -0.1903151 -0.41570958 125 107 90
-0.14393857 -0.19361055 -0.42402238 129 109 91
-0.12575422 -0.1969991 -0.43258196 138 115 92
-0.10681453 -0.20045964 -0.44134372 144 116 89
-0.08710348 -0.20401882 -0.45036793 152 120 88
-0.0665982 -0.20771787 -0.45974788 158 122 87
-0.0452208 -0.21142596 -0.46919602 160 124 89
-0.022986338 -0.21535556 -0.47918543 155 120 84
0.00018159019 -0.21989314 -0.4905824 150 116 82
0.024299588 -0.22330743 -0.49952608 130 105 79
0.050145533 -0.23086394 -0.5178045 117 99 82
0.03214233 -0.09815927 -0.22080453 58 55 54
0.04541 -0.10405292 -0.23468128 17 16 15
0.053999394 -0.09889656 -0.22365247 29 27 25
0.061311044 -0.09345783 -0.21192347 6 3 3
0.07475403 -0.097549126 -0.22178954 29 20 12
0.11393027 -0.1299188 -0.29614964 81 61 43
0.26888815 -0.2721242 -0.6218818 140 105 70
0.3060334 -0.27821517 -0.6375132 140 104 71
0.33671927 -0.27775022 -0.63816553 137 101 70
0.38169932 -0.2880571 -0.6636323 127 98 71
0.40038708 -0.27837884 -0.64307296 132 101 73
-0.24027474 -0.19790101 -0.38294187 130 113 98
-0.2246102 -0.20077564 -0.3894767 128 111 96
-0.20826487 -0.20358849 -0.3959228 125 110 94
-0.1915771 -0.20668764 -0.40295783 123 107 91
-0.17434974 -0.20993993 -0.41032594 121 105 89
-0.15666428 -0.21352133 -0.4183743 121 103 86
-0.13842037 -0.21743079 -0.42710584 127 105 85
-0.119155146 -0.22099838 -0.435207 134 109 84
-0.09935491 -0.22510415 -0.4444096 140 111 84
-0.07869728 -0.22928567 -0.45380703 152 118 84
-0.0571431 -0.23349428 -0.46330413 155 120 85
-0.03465337 -0.2375523 -0.47254825 156 121 84
-0.011324179 -0.24262562 -0.4838616 153 118 81
0.008408535 -0.15675521 -0.31346798 51 44 33
0.017025148 -0.1103418 -0.2212651 64 61 57
0.0303923 -0.11953199 -0.24028888 47 39 32
0.04224358 -0.11906487 -0.23995952 13 12 12
0.052251417 -0.114650995 -0.23165862 19 16 14
0.061522175 -0.11044586 -0.22373685 5 2 2
0.07311817 -0.11101761 -0.22546807 2 1 0
0.09317944 -0.12252609 -0.24945979 58 41 28
0.10830804 -0.12552756 -0.2562205 74 54 36
0.12323865 -0.12763657 -0.26118976 75 57 39
0.14715664 -0.13770457 -0.2825025 210 168 120
0.163708 -0.13966638 -0.28726044 207 169 129
0.17621513 -0.13809924 -0.2847688 209 169 130
-0.23799545 -0.21968152 -0.38323048 124 108 92
-0.22191751 -0.22318803 -0.39028418 122 105 90
-0.20510148 -0.226643 -0.39728028 120 104 89
-0.18813719 -0.23075469 -0.4054621 117 103 86
-0.17012079 -0.23452975 -0.41308945 118 101 86
-0.15172207 -0.23888189 -0.4217706 118 99 82
-0.13231707 -0.24296379 -0.43001434 124 102 80
-0.112055816 -0.24695198 -0.43813038 131 106 80
-0.091413215 -0.25209028 -0.44832858 139 109 78
-0.0696238 -0.25674543 -0.45771393 148 115 79
-0.046857186 -0.2611467 -0.46668988 151 116 79
-0.022991192 -0.263178 -0.47146437 151 116 79
0.0008206146 -0.1293229 -0.23235743 55 52 48
0.012317985 -0.12440403 -0.22407323 31 23 17
0.023930602 -0.124713615 -0.22517812 36 29 20
0.035258457 -0.123677686 -0.2238547 37 29 23
0.04629274 -0.12227558 -0.22186024 23 18 16
0.056714404 -0.120050766 -0.21836026 20 12 8
0.06725589 -0.118713185 -0.21645826 34 27 22
0.07777963 -0.117675364 -0.21509343 49 37 28
0.088288665 -0.11682968 -0.21407273 62 49 37
0.098329246 -0.11557864 -0.21230236 58 45 33
0.11442965 -0.120948836 -0.22270194 76 60 44
0.13170496 -0.12642223 -0.23334229 75 58 45
0.15143926 -0.13309635 -0.24625395 210 167 125
0.17255627 -0.13981308 -0.25930747 210 170 128
-0.2521338 -0.23951994 -0.377185 122 106 90
-0.23577233 -0.2432122 -0.38388997 120 103 88
-0.21922202 -0.24745522 -0.39149565 117 101 84
-0.20161189 -0.2513426 -0.3985719 115 98 83
-0.18382291 -0.25597754 -0.40686727 112 95 80
-0.16519655 -0.26062742 -0.41522384 111 95 77
-0.14627789 -0.26629493 -0.425242 113 95 76
-0.12550369 -0.270192 -0.4324738 120 97 74
-0.10449218 -0.27539 -0.44182384 128 101 73
-0.08299942 -0.2822033 -0.45381206 138 107 74
-0.059856284 -0.2870621 -0.4627067 144 111 73
-0.035302266 -0.28787723 -0.46511242 143 110 73
-0.0051095784 -0.14482507 -0.23468378 195 172 147
0.007295002 -0.14282656 -0.23199412 181 163 146
0.017510623 -0.12695837 -0.20673707 40 37 32
0.028081173 -0.124920525 -0.20390265 28 22 17
0.038518887 -0.12349208 -0.20204966 33 27 24
0.04872337 -0.12202159 -0.20011823 29 25 22
0.05855325 -0.120242625 -0.19767049 25 19 15
0.068034194 -0.118344 -0.19501346 38 30 23
0.07719168 -0.11641416 -0.19229157 51 40 29
0.086446434 -0.11502652 -0.19045241 52 39 29
0.09569134 -0.11388289 -0.18900815 49 36 25
0.10713178 -0.11528848 -0.19179097 59 45 35
0.12288286 -0.120648816 -0.20117147 74 59 47
0.13647343 -0.12316155 -0.20584303 79 62 50
-0.24970943 -0.2635232 -0.3766173 116 99 84
-0.23454021 -0.26982927 -0.38649893 114 97 81
-0.21798886 -0.27571866 -0.3958265 113 97 81
-0.1978006 -0.27790034 -0.39986482 111 94 79
-0.10033986 -0.15895687 -0.22938843 16 11 8
-0.078453034 -0.1422258 -0.20574768 10 6 0
-0.06694068 -0.14178286 -0.20557523 174 146 115
-0.055525273 -0.14148799 -0.205616 197 163 128
-0.044674635 -0.14293581 -0.20819029 212 189 162
-0.03347583 -0.1440305 -0.21026091 211 188 161
-0.021831287 -0.14359717 -0.21010804 212 189 162
-0.010238092 -0.14336295 -0.21024519 210 187 160
0.0013489543 -0.14289983 -0.21004622 206 185 161
0.012961091 -0.14319336 -0.2109585 198 178 152
0.022207301 -0.12907733 -0.19063036 74 66 58
0.03179908 -0.12537253 -0.18559237 25 21 17
0.041284934 -0.12307935 -0.18262112 22 17 14
0.050656237 -0.12134582 -0.18046626 24 19 17
0.060040828 -0.12015368 -0.17910632 28 21 19
0.068913974 -0.118370324 -0.1768577 44 33 25
0.07838703 -0.11789275 -0.17654985 49 37 28
0.088342085 -0.11812845 -0.17730854 49 35 27
0.10055943 -0.12100681 -0.18203846 38 30 24
0.11439931 -0.12510194 -0.18862095 40 34 29
0.12788521 -0.12812401 -0.19361435 43 38 31
0.1406089 -0.1299432 -0.1968112 45 37 30
-0.2617728 -0.2820013 -0.36583063 114 97 82
-0.13359675 -0.15667799 -0.20387776 33 30 28
-0.10125453 -0.13016078 -0.1698141 30 23 18
-0.09422287 -0.13386683 -0.17502618 150 124 102
-0.08579438 -0.1362811 -0.17857186 175 173 166
-0.076737806 -0.13826527 -0.18156908 210 189 163
-0.067216136 -0.1399595 -0.18419823 207 180 149
-0.056862984 -0.14031027 -0.18507004 218 197 173
-0.04652634 -0.14095435 -0.18633196 219 198 174
-0.035876013 -0.14086951 -0.18663503 214 195 171
-0.025239794 -0.1409499 -0.18715769 216 197 172
-0.01456112 -0.1410175 -0.18766497 215 196 171
-0.0038330026 -0.14074473 -0.18772072 213 194 171
0.006905508 -0.14096273 -0.18843071 210 191 168
0.017743856 -0.14148249 -0.1895466 201 183 162
0.026851993 -0.13281016 -0.17834885 72 66 59
0.034931917 -0.12514107 -0.16844746 23 19 15
0.043481056 -0.12206024 -0.16467708 30 27 25
0.05235004 -0.12076403 -0.16329673 24 19 17
0.06130841 -0.11998766 -0.16261242 26 21 19
0.07265338 -0.12343698 -0.167651 31 29 26
0.085788384 -0.1287284 -0.17521363 35 30 27
0.10441578 -0.14025529 -0.19129798 91 68 42
0.11811499 -0.14355327 -0.19622692 107 84 62
0.13176979 -0.14619188 -0.20027566 10 4 3
0.12682316 -0.12939025 -0.17769863 171 144 123
-0.11745067 -0.13999566 -0.16576304 127 110 99
-0.100545734 -0.13079341 -0.1552327 41 35 28
-0.09131459 -0.13070436 -0.15546569 25 17 13
-0.083600365 -0.13303085 -0.1585707 172 137 102
-0.07481062 -0.13406941 -0.16015427 197 166 132
-0.06627282 -0.13596919 -0.16277246 219 202 179
-0.057236295 -0.13738121 -0.16481781 225 209 188
-0.047759037 -0.13817634 -0.16613169 227 210 188
-0.037969053 -0.13834323 -0.16669555 224 208 186
-0.028115567 -0.13843986 -0.16717662 225 210 188
-0.018127797 -0.13782796 -0.16680378 220 207 186
-0.008208202 -0.1373058 -0.16653718 214 200 182
0.0016676879 -0.13741972 -0.16704004 210 195 179
0.011601391 -0.13772841 -0.16778111 203 192 178
0.021653615 -0.1383497 -0.16890548 186 177 165
0.031135783 -0.13594991 -0.16634674 67 67 66
0.03881452 -0.12861556 -0.15773988 40 39 38
0.04723792 -0.12608188 -0.15497975 31 30 30
0.056401175 -0.12598385 -0.15519933 33 30 28
0.07433125 -0.1427433 -0.17617686 93 76 62
0.08420893 -0.1417264 -0.17530903 129 112 99
0.09205591 -0.13784844 -0.1708981 153 135 116
0.09872694 -0.13312086 -0.16541386 161 141 123
0.09543841 -0.11700045 -0.14575173 174 154 134
0.100093305 -0.11247856 -0.14044236 201 186 170
0.1077193 -0.111715116 -0.13979858 210 199 186
-0.10934693 -0.13224863 -0.14269915 206 206 201
-0.10078876 -0.13252047 -0.14329915 183 183 176
-0.092874154 -0.13379596 -0.14498536 152 128 106
-0.084919944 -0.13531198 -0.14693864 185 154 123
-0.07645699 -0.13632432 -0.14835332 229 214 196
-0.067765675 -0.13719445 -0.14961892 224 209 189
-0.058826607 -0.13781193 -0.1506141 234 220 202
-0.049742173 -0.13831955 -0.151493 233 219 200
-0.04052089 -0.138672 -0.15220529 230 216 197
-0.031145427 -0.138656 -0.15251595 227 213 194
-0.021698935 -0.13832396 -0.15247998 227 215 198
-0.012259817 -0.13782808 -0.15226276 219 209 192
-0.0028674244 -0.137414 -0.15213425 217 206 193
0.0065802536 -0.13897872 -0.15419365 207 199 189
0.016190061 -0.13988051 -0.15552637 203 197 188
0.025712214 -0.13949437 -0.1554333 199 193 184
0.034967255 -0.13816333 -0.15428704 193 189 184
0.043690056 -0.1356713 -0.15183963 201 195 190
0.05247611 -0.13416766 -0.15048628 198 192 184
0.06076422 -0.13198367 -0.14836393 196 188 180
0.06725568 -0.12693192 -0.1430107 201 194 183
0.068092436 -0.11356804 -0.1282772 201 193 186
0.07481252 -0.11177393 -0.12653063 169 155 146
0.08294802 -0.11221139 -0.12729879 138 126 119
0.09244505 -0.11423296 -0.12986457 130 122 116
0.10595995 -0.12047974 -0.13723858 134 129 124
-0.100995645 -0.1340924 -0.13225423 178 164 148
-0.09385477 -0.13600458 -0.13441928 219 211 203
-0.086124584 -0.13739772 -0.13608082 232 223 211
-0.078326605 -0.13901849 -0.13797404 237 226 213
-0.06983748 -0.13971636 -0.1389601 232 220 204
-0.06093823 -0.13973004 -0.13927022 234 220 204
-0.052493833 -0.14101428 -0.14084578 238 226 209
-0.043738622 -0.14189546 -0.14202546 233 221 206
-0.035115246 -0.1438536 -0.1442862 231 221 205
-0.02578723 -0.14344922 -0.14418924 224 214 198
-0.016376534 -0.14208126 -0.14312385 216 208 194
-0.0072166957 -0.1425021 -0.14385302 218 210 200
0.0020280632 -0.14368954 -0.14535768 208 202 193
0.011341184 -0.14347799 -0.14545459 206 202 194
0.020171467 -0.13991001 -0.14215247 207 203 196
0.028379416 -0.13548632 -0.13796718 205 201 194
0.03721022 -0.13539034 -0.13816452 207 202 195
0.046001147 -0.13515306 -0.13821808 210 205 195
0.05393734 -0.13282865 -0.1361396 161 146 134
0.06144503 -0.1302014 -0.13374162 137 133 127
0.06994951 -0.13004147 -0.1338636 214 207 196
0.078606956 -0.13013707 -0.13424824 211 203 195
0.08801186 -0.13130042 -0.13573395 213 204 194
0.098289095 -0.13341115 -0.13820356 213 203 193
0.10866043 -0.1352625 -0.14041488 210 199 188
0.11748803 -0.13502972 -0.1404742 211 201 191
-0.10222612 -0.1369321 -0.123265825 218 216 210
-0.09452475 -0.1377114 -0.12422744 221 216 207
-0.086498946 -0.1381537 -0.12488922 205 198 185
-0.07809008 -0.13804914 -0.12505989 197 186 173
-0.06909661 -0.13680618 -0.124201454 178 160 145
-0.05940019 -0.13369668 -0.121647604 162 143 131
-0.050582573 -0.13192563 -0.1202976 154 134 120
-0.042526357 -0.13188206 -0.12051322 150 132 116
-0.034334976 -0.13137403 -0.12030569 166 148 135
-0.026334135 -0.13158394 -0.12075281 192 179 166
-0.018300636 -0.13187031 -0.12127133 227 219 207
-0.010345972 -0.13380483 -0.12330411 221 214 202
-0.0021371855 -0.13589 -0.12548362 214 209 199
0.0062849615 -0.13653223 -0.12634197 208 204 198
0.01473464 -0.1365057 -0.12658574 201 198 190
0.023047617 -0.13557348 -0.12599169 206 202 194
0.030368691 -0.13075608 -0.121790685 204 198 191
0.037432134 -0.12705085 -0.11860502 127 114 101
0.046250578 -0.12954025 -0.12117587 209 204 195
0.053915728 -0.12848136 -0.12044468 204 199 189
0.06292558 -0.13045818 -0.122549884 212 207 199
0.0730984 -0.13408212 -0.12620783 214 209 201
0.08321254 -0.13682526 -0.12905332 215 210 203
0.09315927 -0.1387726 -0.13116114 213 205 197
0.10338597 -0.14073849 -0.1332949 214 206 198
0.116145276 -0.14554235 -0.1381208 210 203 194
-0.09641729 -0.14114788 -0.116245545 128 109 92
-0.08893917 -0.14217955 -0.11733954 127 110 95
-0.080495335 -0.14175974 -0.11724267 126 109 94
-0.07117403 -0.13956966 -0.11568431 125 111 97
-0.062206563 -0.13763557 -0.114330426 128 117 106
-0.054011263 -0.13712116 -0.1141465 140 132 122
-0.045672055 -0.13605443 -0.113502674 169 160 150
-0.03775911 -0.1361224 -0.11379975 178 171 162
-0.029811611 -0.13614546 -0.11406011 180 173 164
-0.021749657 -0.1355861 -0.11383437 169 163 153
-0.013727411 -0.1349373 -0.11353224 133 129 122
-0.0057609887 -0.13420232 -0.11315597 124 118 112
0.0021334684 -0.13332976 -0.11266187 122 111 101
0.009949684 -0.13257258 -0.11226237 126 113 101
0.017575456 -0.13092703 -0.111110345 137 121 110
0.025292031 -0.13069128 -0.11114616 151 136 125
0.033363737 -0.13191724 -0.11242146 215 214 207
0.040524673 -0.12968722 -0.11076403 215 211 204
0.04784304 -0.12855732 -0.110036135 212 206 199
0.05535798 -0.1281608 -0.109930694 216 211 204
0.06394635 -0.13001709 -0.11175151 219 215 207
0.075169645 -0.13622363 -0.1173091 215 211 203
0.085392445 -0.1395398 -0.120406665 214 208 201
0.0955136 -0.14208151 -0.12285016 211 205 198
0.10613935 -0.14486746 -0.12551424 209 205 198
0.11914919 -0.15021166 -0.1304011 209 205 197
-0.09337305 -0.13733746 -0.10328398 204 202 195
-0.08548525 -0.13682476 -0.10311927 231 229 223
-0.07794278 -0.1368417 -0.10335121 237 235 229
-0.07031025 -0.13671744 -0.10347735 242 236 227
-0.06331319 -0.13797037 -0.1046425 234 229 218
-0.0558973 -0.13857359 -0.10532094 233 225 215
-0.04855588 -0.13962434 -0.10634085 229 220 208
-0.041022085 -0.14047335 -0.107211426 223 215 201
-0.03356733 -0.14211583 -0.108688965 229 220 208
-0.02569881 -0.14259018 -0.1092816 226 217 205
-0.017693894 -0.14253522 -0.10947176 234 225 215
-0.009614452 -0.14156261 -0.10895948 230 223 212
-0.0016257504 -0.14038125 -0.10828427 218 215 207
0.006323023 -0.14102525 -0.1090095 212 210 203
0.014133829 -0.13938183 -0.10797434 218 216 210
0.021237768 -0.13430016 -0.10427868 120 109 98
0.029888129 -0.13912416 -0.10823381 202 200 195
0.037352495 -0.13745873 -0.1071717 122 115 108
0.04463119 -0.13575837 -0.106077395 118 107 95
0.051885813 -0.13446069 -0.10529157 144 128 115
0.059033785 -0.133223 -0.10454872 208 204 197
0.06632878 -0.13253365 -0.10423118 213 209 201
0.07494963 -0.1343408 -0.105869 211 207 200
0.085418105 -0.13879058 -0.10958956 212 209 201
0.0952588 -0.14151748 -0.11196902 209 205 200
0.10640593 -0.14557847 -0.11541076 207 206 197
-0.08469741 -0.13569345 -0.09333999 236 236 231
-0.078340426 -0.13712204 -0.09451855 235 233 226
-0.07192178 -0.13874955 -0.09583831 235 231 223
-0.065289125 -0.14031978 -0.09712385 233 228 217
-0.058410518 -0.14173503 -0.09830757 226 221 210
-0.05127564 -0.14289959 -0.09932269 228 221 209
-0.04417798 -0.14463605 -0.10073773 230 223 210
-0.037085827 -0.14718267 -0.10272061 231 222 210
-0.029646492 -0.14943781 -0.10450881 232 222 211
-0.021550136 -0.14898257 -0.104415044 225 216 204
-0.013448765 -0.14811268 -0.104030706 228 221 210
-0.005415017 -0.14696342 -0.10344861 219 213 204
0.0025357069 -0.14755785 -0.10408672 214 212 205
0.009719814 -0.13591841 -0.09612627 230 233 231
0.01767721 -0.14065552 -0.09966902 203 203 198
0.026159639 -0.14536315 -0.10320569 212 210 203
0.033985805 -0.14497647 -0.10315246 210 208 202
0.04165605 -0.14414085 -0.102780156 208 205 199
0.048592634 -0.14138317 -0.10103986 206 202 197
0.055430353 -0.13910054 -0.09962986 204 200 192
0.062200584 -0.1371909 -0.09847948 210 205 200
0.06878419 -0.13529894 -0.097336315 199 194 186
0.074959345 -0.13302596 -0.09591464 133 126 121
0.0822217 -0.13289712 -0.096026495 138 132 125
0.09081929 -0.13475217 -0.09756643 166 158 148
0.11130426 -0.15262133 -0.11066484 206 206 199
-0.08465346 -0.13573581 -0.08514692 232 232 225
-0.079148374 -0.13814504 -0.08683533 233 231 224
-0.07344053 -0.14066014 -0.08859689 231 228 220
-0.067560196 -0.14338054 -0.09049438 232 226 217
-0.0613486 -0.14600746 -0.092340946 231 223 213
-0.054226518 -0.14694777 -0.09313295 227 220 207
-0.047096364 -0.14820702 -0.09412918 231 222 210
-0.04144468 -0.15549055 -0.09893956 225 216 202
-0.03521805 -0.16364819 -0.10432447 229 221 207
-0.0259199 -0.15847039 -0.101260975 227 219 205
-0.017364338 -0.15523727 -0.09942163 224 215 203
-0.00915953 -0.15249439 -0.09788647 223 216 205
-0.0012509426 -0.15224983 -0.09794156 215 213 205
0.0061090905 -0.13907704 -0.08971193 214 215 212
0.014001307 -0.14608034 -0.09440296 213 212 207
0.02240418 -0.15147755 -0.098080255 212 212 207
0.030357704 -0.15168872 -0.098428085 212 209 205
0.038749266 -0.15349993 -0.09981114 210 208 204
0.046180416 -0.15146813 -0.09871017 198 196 189
0.052345373 -0.14643745 -0.095657006 208 206 200
0.058602974 -0.14289546 -0.0935586 211 209 203
0.064542174 -0.13944323 -0.091509104 208 206 202
0.07029242 -0.13630672 -0.0896565 210 208 204
0.076962814 -0.13535382 -0.08922536 211 209 205
0.0845761 -0.1360618 -0.08988189 209 209 204
0.09420379 -0.13962786 -0.09242057 201 197 190
-0.08008797 -0.13941947 -0.07981847 234 232 226
-0.07534475 -0.14334913 -0.08223149 231 229 222
-0.07067568 -0.14826283 -0.08521629 222 217 206
-0.06500959 -0.15201357 -0.08754876 225 218 206
-0.057752986 -0.15259798 -0.088076234 230 221 209
-0.049999543 -0.15189981 -0.087868765 226 218 204
-0.043576468 -0.15571228 -0.090256706 234 227 216
-0.03797654 -0.16473642 -0.0956618 236 229 217
-0.02906974 -0.16068754 -0.0935306 236 228 218
-0.020741712 -0.15806414 -0.092215545 236 228 218
-0.012693238 -0.15582614 -0.09111797 221 216 205
-0.0049366807 -0.15602304 -0.09143239 210 208 200
0.0026394937 -0.14296599 -0.0840153 225 228 226
0.010442926 -0.15288165 -0.08999686 216 216 211
0.018391963 -0.15538974 -0.09166363 215 215 210
0.026146904 -0.15513864 -0.09171685 211 209 205
0.03391301 -0.15499127 -0.09183081 213 211 207
0.041206945 -0.15308236 -0.090905674 212 212 207
0.04864804 -0.15219891 -0.09058216 206 206 199
0.055224292 -0.1491749 -0.08898847 208 208 203
0.06112304 -0.14523423 -0.086842924 216 214 210
0.067119844 -0.14232491 -0.08530118 203 200 196
0.073229514 -0.14017518 -0.084205166 213 213 208
0.08016924 -0.13983676 -0.08418649 212 212 207
0.08828191 -0.14141516 -0.08531549 206 206 201
0.10285767 -0.15231799 -0.09204684 201 203 199
-0.082363866 -0.14301975 -0.07444129 226 226 219
-0.07646094 -0.14459242 -0.07542195 233 231 225
-0.070671014 -0.14672853 -0.076698706 235 231 223
-0.063740745 -0.1467478 -0.07688083 242 236 227
-0.05806029 -0.15000588 -0.07875003 242 237 226
-0.05132402 -0.15112083 -0.07950857 240 233 224
-0.044549588 -0.15250768 -0.08041228 238 230 220
-0.038097817 -0.15578471 -0.082310684 237 230 219
-0.031101633 -0.15796475 -0.08364066 235 228 216
-0.023608787 -0.15832864 -0.084019534 238 232 222
-0.01588641 -0.15693815 -0.083473474 233 228 219
-0.00835058 -0.15673476 -0.083552495 223 221 215
-0.00080200314 -0.15391296 -0.082242854 229 233 231
0.0066374014 -0.15476783 -0.08288086 170 167 157
0.014489647 -0.1591877 -0.085420236 219 219 214
0.021990512 -0.15784706 -0.084895104 217 217 212
0.029399412 -0.15663938 -0.08443824 225 225 218
0.036576916 -0.15488875 -0.08368762 210 210 205
0.04348097 -0.15272726 -0.082712255 216 216 211
0.05020344 -0.150614 -0.08175798 217 218 215
0.057221595 -0.14978595 -0.0814928 213 213 207
0.0633212 -0.14697784 -0.08015447 204 204 199
0.069506474 -0.14489718 -0.07920416 202 202 195
0.07605023 -0.14385957 -0.078816056 210 210 206
0.0834355 -0.14443704 -0.07930557 211 211 208
0.09176971 -0.1464206 -0.08056451 205 206 203
