ply
format ascii 1.0
element vertex 494
property float x
property float y
property float z
property uchar red
property uchar green
property uchar blue
element face 0
property list uchar int vertex_indices
end_header
-0.17120339 -0.015290003 -0.48630658 134 107 84
-0.1543178 -0.015531004 -0.48981816 132 105 81
-0.13718979 -0.015800562 -0.49402335 132 106 81
-0.119835384 -0.016113976 -0.4993175 132 105 79
-0.101826325 -0.016423296 -0.50440377 136 108 86
-0.08350359 -0.016795216 -0.51104546 137 110 86
-0.06290761 -0.016764777 -0.5070085 127 102 79
-0.028011061 -0.011370943 -0.3631559 24 14 8
-0.011613613 -0.010168073 -0.3297136 24 15 7
0.0017577277 -0.009690677 -0.3153556 23 12 7
0.014211417 -0.009485678 -0.30812934 22 12 6
0.026283557 -0.009340023 -0.30248502 27 16 7
0.03842968 -0.009350573 -0.30083558 86 70 52
0.051142104 -0.009514521 -0.3030304 126 101 77
0.066496454 -0.010158911 -0.31712946 18 10 3
0.14173578 -0.020712232 -0.57589495 213 178 141
0.17280513 -0.021721248 -0.5968612 214 179 142
0.2036416 -0.022444185 -0.6105271 212 177 140
0.2350143 -0.023066372 -0.62152433 212 176 141
0.26734084 -0.023661008 -0.63166445 212 174 142
0.301242 -0.024291849 -0.6424843 208 172 136
0.33710518 -0.024981754 -0.65450764 209 171 137
0.37478602 -0.025706261 -0.6671323 207 169 135
0.4144356 -0.026468884 -0.6804222 207 172 137
0.45265126 -0.027040457 -0.6890401 209 172 137
0.48311335 -0.027071692 -0.6850256 205 168 131
-0.16634475 -0.033212785 -0.4867044 132 105 81
-0.14900503 -0.03367889 -0.49018946 130 104 76
-0.1313376 -0.03418559 -0.4941442 135 107 86
-0.11347884 -0.03479418 -0.49936554 132 105 81
-0.095237605 -0.035495725 -0.5057135 133 106 84
-0.07644062 -0.036280375 -0.5130382 139 112 90
-0.057020627 -0.037188753 -0.5218469 140 113 89
-0.020618133 -0.023667421 -0.34507182 20 10 6
-0.0056519276 -0.021919858 -0.32078505 24 15 9
0.007369122 -0.021176865 -0.3095252 21 11 6
0.019769903 -0.020829892 -0.30338037 22 12 8
0.03188839 -0.02058924 -0.29862493 26 16 10
0.04410857 -0.02058539 -0.29686168 36 22 13
0.056626998 -0.020730577 -0.29694882 73 57 43
0.07043758 -0.02130411 -0.3022931 213 178 141
0.15972786 -0.045042146 -0.5911475 212 177 139
0.18991159 -0.046326734 -0.6032222 210 173 136
0.22221339 -0.04779056 -0.61727554 209 172 135
0.25453523 -0.04894182 -0.6273577 209 171 136
0.288491 -0.050174348 -0.6382427 209 171 137
0.32424206 -0.051493816 -0.6499793 202 167 132
0.36228362 -0.052955706 -0.663203 205 169 136
0.40239727 -0.054496586 -0.6771386 200 165 130
0.44334307 -0.055935275 -0.6896602 202 166 131
0.47675446 -0.05625401 -0.6890196 201 163 128
0.5029717 -0.055700913 -0.6783197 202 164 130
-0.17772536 -0.050949976 -0.4814089 133 106 84
-0.16065454 -0.05170182 -0.48537955 138 111 87
-0.14334166 -0.052558348 -0.49018943 147 120 94
-0.12557341 -0.053478356 -0.4954671 150 121 96
-0.1073198 -0.05448092 -0.5013673 151 122 99
-0.08858154 -0.055619966 -0.50833917 135 108 84
-0.06917947 -0.05687212 -0.5161643 137 108 84
-0.04901842 -0.05826655 -0.52507263 137 110 89
-0.02772693 -0.059428476 -0.5318923 142 114 93
9.585309e-05 -0.034027424 -0.31656617 23 13 7
0.012991627 -0.032679465 -0.303606 21 13 9
0.025421804 -0.032360855 -0.29928285 20 12 6
0.03759321 -0.032025475 -0.29485473 19 11 3
0.049864657 -0.03197737 -0.29280615 26 16 11
0.062115796 -0.031946052 -0.29090014 31 21 13
0.07543081 -0.032474265 -0.29351225 4 1 0
0.1792092 -0.0717405 -0.60666317 207 172 136
0.20896333 -0.072900005 -0.61232644 208 173 136
0.24161424 -0.07474376 -0.6233005 205 169 134
0.2754821 -0.076562166 -0.6338999 205 168 133
0.31135967 -0.07857336 -0.64583516 202 165 131
0.3494235 -0.08077003 -0.6590223 201 165 133
0.38982868 -0.08314268 -0.6733607 198 163 129
0.4317886 -0.08549043 -0.6872829 200 164 132
0.46936315 -0.08667821 -0.69213146 200 165 132
0.4944063 -0.08546719 -0.67868084 198 162 127
-0.17250791 -0.069941044 -0.48074368 139 112 90
-0.15536377 -0.07112239 -0.48574376 147 120 97
-0.13766278 -0.072343476 -0.49091476 162 133 108
-0.11968475 -0.073789604 -0.4974304 170 138 112
-0.10088304 -0.07520376 -0.5036419 183 150 122
-0.08155474 -0.076823905 -0.51104844 166 136 107
-0.06139506 -0.07849163 -0.5186379 133 106 82
-0.040349077 -0.08017826 -0.526227 137 109 88
-0.018405262 -0.08189352 -0.5338741 137 110 86
0.00577492 -0.05017432 -0.33602136 39 25 18
0.018773787 -0.044843134 -0.30159453 17 9 3
0.031223923 -0.044193458 -0.29597282 19 11 6
0.043518033 -0.04381066 -0.29200953 20 12 6
0.05571964 -0.0435473 -0.28879148 21 13 7
0.068012424 -0.043468118 -0.28669187 34 24 9
0.08053076 -0.043562964 -0.2856307 27 18 8
0.19549724 -0.09843398 -0.6073137 203 168 133
0.2282695 -0.10099303 -0.61871827 201 166 133
0.2620965 -0.10342145 -0.6291825 202 165 131
0.2980677 -0.10616527 -0.6413009 198 163 130
0.3359299 -0.10905246 -0.6540512 195 160 127
0.3763305 -0.11224803 -0.66836095 195 158 127
0.41874057 -0.115529634 -0.6829349 193 157 126
0.46014345 -0.1180787 -0.6931452 198 162 131
0.48818406 -0.11698386 -0.68274474 196 161 128
0.5148512 -0.11571323 -0.67144567 195 160 125
-0.18446797 -0.08837119 -0.47599638 137 109 87
-0.16734274 -0.08981476 -0.48073617 140 113 89
-0.14995156 -0.09146981 -0.4864607 153 126 100
-0.13201317 -0.09323941 -0.49266645 168 138 111
-0.11348384 -0.09514855 -0.4994681 185 153 123
-0.09413771 -0.09706643 -0.50620615 198 166 132
-0.07412252 -0.09918154 -0.5138081 193 160 126
-0.053140495 -0.10120838 -0.5208594 149 121 91
-0.031419735 -0.10360213 -0.52958333 132 106 84
-0.008721558 -0.106373414 -0.5400001 132 107 82
0.015163526 -0.10895531 -0.5493505 137 111 84
0.024878938 -0.057896763 -0.3020358 21 12 8
0.037216 -0.056409616 -0.293272 19 10 6
0.049460493 -0.05570523 -0.28829238 18 10 4
0.061886232 -0.05552882 -0.28583366 17 11 4
0.07451273 -0.055598654 -0.28453565 16 9 6
0.087503806 -0.055916607 -0.28438616 38 26 17
0.21413867 -0.12740585 -0.61250764 200 164 132
0.24897291 -0.13107504 -0.6256805 197 162 128
0.28462794 -0.13436987 -0.63694304 195 159 126
0.3224231 -0.13798656 -0.6494795 192 157 124
0.3625568 -0.14192091 -0.6632441 187 152 119
0.4049178 -0.14605479 -0.677682 189 153 122
0.44802028 -0.14983156 -0.69030297 192 158 126
0.48147896 -0.1499948 -0.6867583 191 155 122
0.5056083 -0.14734471 -0.6708635 179 144 115
-0.17972864 -0.10886563 -0.47637802 136 109 85
-0.16240494 -0.11084763 -0.48196325 142 115 91
-0.14446649 -0.11290605 -0.48777068 155 126 101
-0.12617029 -0.11530208 -0.49486196 171 142 115
-0.1069716 -0.11766068 -0.50169015 190 158 126
-0.08705559 -0.120192975 -0.5091105 201 168 132
-0.06629917 -0.12285109 -0.51691866 206 173 137
-0.04463447 -0.12563589 -0.52510935 177 145 113
-0.022004755 -0.12860017 -0.53388315 129 103 81
0.001674609 -0.13202329 -0.54432976 130 105 81
0.026629044 -0.13572188 -0.5556979 133 108 83
0.0521054 -0.1368653 -0.55693454 139 114 87
0.043493215 -0.069201306 -0.2915177 20 12 7
0.05559939 -0.06794456 -0.285015 19 13 8
0.06830284 -0.06791413 -0.28326598 19 13 8
0.08179883 -0.06865685 -0.28446072 12 8 4
0.1959996 -0.15108399 -0.594487 195 161 127
0.23719998 -0.1605568 -0.6265156 193 160 127
0.27107793 -0.16328096 -0.63290125 192 157 124
0.30878243 -0.16761175 -0.6451243 189 153 122
0.34900182 -0.17243174 -0.65895194 185 151 119
0.3917534 -0.177625 -0.67392504 181 147 118
0.4353676 -0.18238467 -0.6870796 186 152 122
0.47444502 -0.18464647 -0.69097716 188 155 123
0.5010698 -0.1819656 -0.67700315 182 146 117
0.5264882 -0.1792085 -0.66288346 144 115 88
-0.19223133 -0.12813883 -0.47185215 129 103 81
-0.17497149 -0.13044323 -0.47728017 131 103 84
-0.15723002 -0.13293843 -0.48327827 139 112 88
-0.1389526 -0.1356573 -0.48994833 157 128 106
-0.11985607 -0.13840376 -0.4966054 173 142 116
-0.10016796 -0.14149658 -0.50433344 194 162 130
-0.07956305 -0.14466254 -0.5121867 201 169 133
-0.058029026 -0.14795049 -0.52032536 201 168 131
-0.03544669 -0.1511394 -0.52800274 197 164 129
-0.011891884 -0.15445617 -0.53597945 146 120 91
0.012724095 -0.15886162 -0.5474239 125 100 75
0.03875707 -0.16352919 -0.55955535 126 101 76
0.066157356 -0.1679584 -0.5707239 131 106 81
0.050229568 -0.08291966 -0.2913129 26 16 10
0.06184463 -0.08040931 -0.28152528 20 14 7
0.07537518 -0.081230365 -0.28251913 14 8 3
0.089073576 -0.081965685 -0.28320783 33 20 8
0.21560322 -0.18286192 -0.6010117 188 156 122
0.25641602 -0.19222268 -0.626793 187 154 120
0.29516545 -0.1981228 -0.6413839 184 150 118
0.33574048 -0.20402263 -0.6557413 182 148 116
0.3785649 -0.21016529 -0.6706159 175 143 112
0.42264396 -0.21596934 -0.68421 176 144 114
0.4645788 -0.21986155 -0.6917498 184 151 121
0.49887282 -0.21976352 -0.6870571 183 147 116
0.4901831 -0.20155029 -0.6278865 185 138 99
-0.18796596 -0.15049608 -0.47316644 129 102 80
-0.17039806 -0.15344739 -0.47931355 128 103 80
-0.15213919 -0.15650976 -0.48568818 139 113 91
-0.13324803 -0.15980235 -0.49263588 158 131 107
-0.11374227 -0.16347766 -0.5005916 175 144 117
-0.09324983 -0.16717602 -0.5084876 189 158 124
-0.07178273 -0.1709427 -0.51645386 199 166 130
-0.049293008 -0.17471457 -0.52430534 200 169 132
-0.025783002 -0.17851284 -0.53210247 200 169 132
-0.0012614179 -0.18272166 -0.5409361 172 142 109
0.024454342 -0.18750522 -0.55124915 122 99 74
0.051934693 -0.1943544 -0.5671991 124 99 74
0.08114478 -0.20082892 -0.5818669 125 103 77
0.055258553 -0.09322169 -0.27984396 22 14 8
0.06896557 -0.09430833 -0.28118992 14 8 3
0.08381823 -0.09650062 -0.28552765 28 18 9
0.20527317 -0.21537052 -0.6073938 187 155 121
0.24141547 -0.22154431 -0.6203298 183 151 116
0.28185338 -0.22993557 -0.63901293 180 150 118
0.3234915 -0.23750807 -0.6552209 175 145 115
0.3659494 -0.24423157 -0.6689162 170 140 110
0.41001633 -0.2508212 -0.6820278 169 139 110
0.45343697 -0.25600368 -0.6912289 175 145 114
0.48855016 -0.25597784 -0.68670577 157 124 87
0.46232244 -0.2252924 -0.6029687 116 83 50
0.47941056 -0.21880265 -0.5823904 184 146 103
-0.20128147 -0.17095895 -0.46924725 125 100 78
-0.18383676 -0.17434484 -0.47540718 125 100 78
-0.16582495 -0.17799282 -0.4821428 125 99 77
-0.147051 -0.18178487 -0.489138 134 109 84
-0.12743755 -0.18568623 -0.49629724 157 130 104
-0.10697158 -0.18974121 -0.5037283 171 140 112
-0.085765146 -0.19430166 -0.5123141 191 159 125
-0.06342621 -0.19878267 -0.5205608 197 165 131
-0.04002561 -0.2033612 -0.52891433 195 163 127
-0.015517085 -0.20793661 -0.53712034 194 163 125
0.010096375 -0.21238571 -0.54487497 185 155 117
0.036853734 -0.2173556 -0.5537713 143 117 87
0.06607325 -0.22728793 -0.5746122 117 95 69
0.04882603 -0.1071579 -0.28011352 48 39 29
0.061677516 -0.106311105 -0.2764001 15 11 6
0.07748516 -0.110579655 -0.2849465 12 8 4
0.11220936 -0.138995 -0.35073873 178 150 122
0.22630481 -0.25146964 -0.614107 179 149 116
0.26860294 -0.2631731 -0.6376712 174 143 112
0.3101228 -0.27160922 -0.6532644 173 142 111
0.35512695 -0.28122494 -0.6713311 165 135 105
0.3994216 -0.28859082 -0.683931 151 123 93
0.43520382 -0.28895378 -0.6803109 199 164 129
0.2576035 -0.15510134 -0.37216324 236 203 163
0.27640602 -0.15496197 -0.36944574 232 198 156
0.29801497 -0.15637572 -0.37020957 228 194 150
-0.19735417 -0.19545598 -0.47109175 120 95 73
-0.17983535 -0.1999559 -0.4786768 121 95 75
-0.16126147 -0.20436727 -0.4859365 122 97 74
-0.14180975 -0.20889811 -0.49334568 136 111 84
-0.1214587 -0.21357745 -0.50096476 153 127 101
-0.100172475 -0.21843117 -0.50884545 169 140 111
-0.077953435 -0.22361514 -0.51732725 188 157 123
-0.054730058 -0.22926489 -0.52669597 191 160 125
-0.030223545 -0.2345976 -0.53521353 188 157 121
-0.0045151263 -0.23914964 -0.5418816 190 161 123
0.02223342 -0.24455403 -0.550273 190 161 122
0.028771037 -0.12269001 -0.28434372 56 45 33
0.042425238 -0.12268153 -0.28260732 57 44 32
0.056388166 -0.123485945 -0.2826005 12 6 3
0.07057725 -0.12439928 -0.28280213 14 8 4
0.086664714 -0.12812157 -0.28887564 4 2 0
0.105750866 -0.13490179 -0.30122414 64 48 30
0.120029874 -0.1340618 -0.29760024 81 63 44
0.1405547 -0.14010808 -0.30817112 174 141 85
0.1651589 -0.14880049 -0.32398525 240 208 166
0.18409014 -0.15092859 -0.32623288 240 210 169
0.20232035 -0.15213674 -0.32656744 240 210 171
0.21998455 -0.1527434 -0.3256647 239 207 167
0.23615122 -0.15225264 -0.32256302 237 204 164
0.25355464 -0.15261038 -0.32115158 234 200 160
0.27285296 -0.15404043 -0.32183447 233 199 159
-0.20950021 -0.21531704 -0.4634396 116 91 69
-0.19397971 -0.22219694 -0.47480214 116 92 71
-0.1765861 -0.22844689 -0.4847109 115 91 70
-0.15718101 -0.23359896 -0.49224326 122 96 76
-0.13684154 -0.23889808 -0.49994287 136 111 89
-0.11554514 -0.24438629 -0.50788814 153 125 98
-0.09321715 -0.2500174 -0.5159805 166 138 109
-0.06961946 -0.2551416 -0.52293277 185 153 119
-0.045366783 -0.2620548 -0.53326404 188 157 122
-0.019600455 -0.26757368 -0.54070777 190 159 123
0.007267716 -0.26890305 -0.539908 187 159 123
0.021336019 -0.13646373 -0.2819194 42 33 21
0.03487824 -0.13519739 -0.27777007 41 30 19
0.04810758 -0.13373972 -0.27328992 30 21 12
0.061074767 -0.13236256 -0.26899835 29 21 12
0.07473676 -0.1329465 -0.2684137 28 19 11
0.088515915 -0.1335381 -0.26782912 54 41 26
0.102041766 -0.13360123 -0.26625392 64 49 37
0.1152077 -0.13320015 -0.26382583 65 47 35
0.12946288 -0.13411087 -0.2637989 77 61 44
0.15640464 -0.14761364 -0.28654116 238 207 170
0.17672274 -0.15260239 -0.29364297 240 209 169
0.19171855 -0.1522986 -0.29117346 239 206 169
0.20627983 -0.15170836 -0.2882043 243 210 172
0.22018571 -0.15073419 -0.28457463 239 205 166
0.2365615 -0.15155019 -0.28409833 237 204 166
-0.2053574 -0.24139497 -0.4644702 114 91 70
-0.18863162 -0.2484878 -0.47467446 112 88 67
-0.17000003 -0.25469676 -0.4831075 113 89 68
-0.1495079 -0.2596927 -0.48920432 121 96 75
-0.12788233 -0.26424763 -0.4943945 135 109 89
-0.10754208 -0.27385387 -0.5085043 150 124 98
-0.08327309 -0.27679792 -0.51057035 169 138 110
-0.058748197 -0.2809157 -0.5146395 181 151 118
-0.026827807 -0.23883417 -0.4376761 184 155 122
-0.0006536514 -0.1595379 -0.2969042 228 199 158
0.013874435 -0.15361439 -0.28481415 223 193 150
0.026603539 -0.14221816 -0.26346004 34 24 15
0.03903864 -0.13890646 -0.25616074 33 22 10
0.05097006 -0.13592869 -0.24950354 39 25 4
0.06251103 -0.13333808 -0.24356654 226 197 163
0.07413907 -0.1318841 -0.23958945 237 210 174
0.086050995 -0.1313714 -0.23720898 241 213 179
0.09905275 -0.13260876 -0.23772651 236 208 173
0.11193553 -0.1334019 -0.23748872 226 194 164
0.12665725 -0.13616794 -0.24044152 62 45 34
0.14134996 -0.13837676 -0.24243177 41 29 10
0.16788164 -0.15155698 -0.26196337 242 209 169
0.18231957 -0.15195484 -0.26084545 242 211 172
0.19468142 -0.15060149 -0.256951 242 210 172
0.20747751 -0.1497681 -0.25390372 241 208 168
0.22519937 -0.15254594 -0.25650138 241 208 170
-0.21211389 -0.25513577 -0.4454183 111 87 66
-0.19304325 -0.25859603 -0.44844696 113 89 71
-0.13189887 -0.20160611 -0.35166955 98 78 57
-0.08380606 -0.15028696 -0.26539272 23 10 12
-0.07183001 -0.15200259 -0.26657936 210 180 151
-0.0607698 -0.15649639 -0.27222565 238 209 170
-0.047754742 -0.15754992 -0.27224684 236 206 165
-0.03449128 -0.15832469 -0.27180097 237 208 169
-0.020934045 -0.15817478 -0.2698722 235 205 165
-0.007394792 -0.1579149 -0.26777363 236 208 166
0.006103152 -0.15712975 -0.26485866 235 205 163
0.017010985 -0.12296642 -0.21006188 225 196 158
0.030082824 -0.13903096 -0.23355415 77 64 44
0.041801326 -0.1383322 -0.2309967 30 22 13
0.052442294 -0.13470244 -0.22398965 27 20 12
0.06214381 -0.13028188 -0.21586314 109 119 109
0.07169357 -0.127065 -0.20963824 162 165 146
0.08188881 -0.1259025 -0.20654586 137 150 138
0.108769335 -0.15018585 -0.24116705 31 21 11
0.123559736 -0.15283377 -0.24346009 147 122 105
0.134108 -0.14985004 -0.23747507 43 32 20
0.14950381 -0.15270957 -0.2400234 225 193 153
0.1622678 -0.15245964 -0.2380373 186 152 121
0.17372073 -0.15104221 -0.23438898 230 195 160
0.18578479 -0.15035442 -0.2318055 234 201 163
0.1998494 -0.15135859 -0.23161834 243 210 172
-0.108390674 -0.15109074 -0.24741088 54 43 31
-0.095745884 -0.15016481 -0.24451976 30 21 11
-0.08611319 -0.1539936 -0.24874867 224 193 157
-0.07454441 -0.155269 -0.2491142 237 206 169
-0.062324606 -0.15552622 -0.2479543 236 206 168
-0.050327677 -0.15649347 -0.24782932 236 205 167
-0.037947506 -0.15664914 -0.24650535 239 208 169
-0.025567241 -0.15690775 -0.2453274 240 211 174
-0.013118901 -0.15693721 -0.24381591 238 209 170
-9.560689e-05 -0.14624518 -0.22702509 220 189 155
0.011184908 -0.1329584 -0.20677121 239 210 171
0.020539474 -0.12120391 -0.1889311 131 141 130
0.030585438 -0.123411074 -0.1908083 196 194 174
0.04059315 -0.12414892 -0.19060613 117 132 122
0.05039379 -0.123938985 -0.18908547 177 176 154
0.059904046 -0.12311576 -0.18673113 111 126 140
0.06909653 -0.12191484 -0.1838807 174 172 168
0.07848277 -0.12138381 -0.18195629 130 143 131
0.08938523 -0.12331222 -0.1833312 138 151 141
0.12503597 -0.15876366 -0.22916806 234 204 164
0.13575634 -0.15647909 -0.22458988 242 212 175
0.14630653 -0.15440865 -0.22033672 243 212 175
0.15721273 -0.1530461 -0.21704319 244 213 177
0.16872549 -0.15247259 -0.21479319 246 214 180
0.18151577 -0.153122 -0.21411838 244 213 176
0.20047846 -0.15884048 -0.21986352 242 211 175
-0.113657355 -0.16016819 -0.24045677 184 154 123
-0.10060652 -0.15843527 -0.23659134 201 169 135
-0.087552585 -0.15627198 -0.2321694 232 199 164
-0.07548824 -0.15537453 -0.22950651 238 207 170
-0.06372482 -0.15484338 -0.22735438 241 210 175
-0.052232627 -0.15481107 -0.22588067 239 208 169
-0.040677138 -0.15455183 -0.22410583 240 209 173
-0.029337589 -0.15503472 -0.22331688 242 213 175
-0.017875992 -0.1551895 -0.22208871 241 212 174
-0.0057032304 -0.147702 -0.21089669 177 148 124
0.0053395033 -0.1420926 -0.20227234 132 142 128
0.014939397 -0.12538218 -0.1794832 129 142 129
0.024263594 -0.12549475 -0.17846683 150 154 140
0.03365613 -0.12587334 -0.17778571 39 81 110
0.042860556 -0.12537399 -0.17599355 160 157 145
0.05206472 -0.12508889 -0.17447825 106 122 115
0.060826235 -0.123856336 -0.17179386 175 168 159
0.06942023 -0.12265298 -0.16916806 61 90 120
0.078384824 -0.12241578 -0.16774455 121 130 120
0.08629779 -0.12059331 -0.16440359 130 137 124
0.10378604 -0.13256921 -0.17769957 150 152 134
0.13114262 -0.15487406 -0.20311286 235 202 165
0.14126556 -0.153338 -0.19986664 234 201 163
0.15278012 -0.15353756 -0.19868974 234 201 163
0.16379192 -0.15321024 -0.19689469 233 200 164
0.17647173 -0.15447648 -0.19695097 206 171 136
-0.09781808 -0.15528849 -0.21479037 235 204 169
-0.08505628 -0.15203625 -0.20935896 238 207 172
-0.073070765 -0.14939685 -0.20474833 240 209 174
-0.06234519 -0.14867978 -0.20256615 239 208 172
-0.052418422 -0.149721 -0.20256115 239 209 170
-0.042283744 -0.15055853 -0.20228963 241 212 174
-0.03201757 -0.15132482 -0.20191751 241 211 173
-0.021700904 -0.15236643 -0.20186445 242 213 174
-0.010592305 -0.14810397 -0.195445 239 210 173
-0.00036434163 -0.14926977 -0.19554976 170 141 117
0.009819057 -0.13638644 -0.17905805 119 142 133
0.018853543 -0.13096985 -0.17153287 118 131 122
0.02813746 -0.13211207 -0.17172724 106 122 115
0.037017696 -0.13071615 -0.16897249 186 169 142
0.046086743 -0.1306434 -0.16775788 99 110 107
0.05487303 -0.12981154 -0.16568139 101 115 110
0.06355402 -0.12900399 -0.16364674 99 113 107
0.07200555 -0.12795933 -0.16136044 106 122 116
0.08073588 -0.12766758 -0.15992919 108 123 115
0.0902837 -0.12873742 -0.1600052 115 128 119
0.115860224 -0.15251815 -0.18492407 203 173 140
0.12623839 -0.15226844 -0.1833374 204 171 143
0.13088812 -0.14521174 -0.17441976 177 146 119
0.14058809 -0.14480697 -0.17273428 195 161 131
0.15451522 -0.14880538 -0.17572597 198 166 136
0.17530717 -0.15887241 -0.18503468 199 165 135
-0.0950578 -0.15203032 -0.19557086 237 208 173
-0.08296021 -0.1484797 -0.19021729 240 211 176
-0.072117686 -0.14640309 -0.18661785 240 209 173
-0.062434908 -0.14620234 -0.18519646 240 209 173
-0.052984502 -0.1465014 -0.18434587 241 210 173
-0.043597594 -0.14709154 -0.18381874 242 211 174
-0.034157142 -0.14775652 -0.18336612 242 213 176
-0.024572404 -0.14814302 -0.18259363 242 212 174
-0.014531876 -0.14583533 -0.17884336 236 205 172
-0.0048781442 -0.14453202 -0.17623019 103 79 60
0.004630545 -0.1421059 -0.17241766 208 185 156
0.013799015 -0.13907997 -0.16799708 114 133 125
0.022776239 -0.13793352 -0.16563806 105 118 111
0.03184532 -0.13819553 -0.16479468 99 113 107
0.04060222 -0.1369976 -0.16240722 96 113 108
0.049327936 -0.13621563 -0.16047466 94 111 106
0.057856556 -0.13517414 -0.15828519 96 111 107
0.0662972 -0.13424425 -0.15622765 99 113 107
0.075425364 -0.1349526 -0.15586087 98 112 105
0.08694864 -0.13979077 -0.15967397 104 117 107
0.09911055 -0.14465585 -0.16343683 138 126 109
0.107043274 -0.14245564 -0.16006514 148 122 102
0.117021546 -0.1433568 -0.15980174 189 157 131
0.12880963 -0.14633599 -0.16156635 191 158 131
0.14209804 -0.1505856 -0.16452189 193 159 132
0.15680715 -0.1557618 -0.16830538 191 157 129
-0.08505348 -0.15187418 -0.18081474 234 203 169
-0.07532429 -0.1512513 -0.17898504 233 199 166
-0.06581577 -0.15092535 -0.17747895 233 202 166
-0.05692372 -0.15196657 -0.17741324 228 197 160
-0.047528826 -0.1519586 -0.17623845 229 196 160
-0.037512116 -0.14985996 -0.17290092 232 198 165
-0.027360927 -0.14611143 -0.16790082 243 214 176
-0.018179696 -0.14525646 -0.16590767 219 185 154
-0.008902071 -0.14265376 -0.16215907 228 197 163
-0.00011039922 -0.14310502 -0.1615173 223 198 165
0.008732236 -0.14314374 -0.1604577 201 182 153
0.017610135 -0.14365907 -0.15986915 103 122 113
0.0266834 -0.14522041 -0.16029978 102 118 111
0.03556924 -0.14479205 -0.15876885 98 114 109
0.04432675 -0.14406507 -0.156956 90 106 100
0.052646656 -0.14222024 -0.15408237 96 110 106
0.061197195 -0.14160405 -0.15240572 86 102 98
0.070259325 -0.14234711 -0.15202145 67 76 72
0.07960334 -0.14348093 -0.151992 85 84 71
0.08589053 -0.13885492 -0.14659648 145 119 98
0.09404697 -0.13818452 -0.1449147 185 154 131
0.10629547 -0.14368911 -0.14888455 187 154 129
0.119847365 -0.15005544 -0.15355211 185 153 127
0.13256863 -0.15441169 -0.15631774 188 156 128
0.14552154 -0.15842243 -0.1587099 188 153 126
0.16291785 -0.16673727 -0.16484375 190 155 128
-0.08861838 -0.15770963 -0.1746858 224 190 154
-0.0788589 -0.15674917 -0.17259112 230 196 163
-0.069205955 -0.15577637 -0.17049831 233 202 167
-0.059825506 -0.1551718 -0.16877808 231 200 164
-0.050749797 -0.15519337 -0.16767171 234 202 167
-0.04144675 -0.15449639 -0.16587605 224 193 156
-0.031615537 -0.15142657 -0.16183189 217 186 152
-0.022032097 -0.14781278 -0.15731801 204 171 144
-0.013232509 -0.14677607 -0.15527226 238 208 175
-0.0046389448 -0.14675173 -0.1541835 200 170 140
0.0039312015 -0.14746578 -0.15377693 217 191 159
0.012608947 -0.14901578 -0.15412608 186 165 139
0.0214863 -0.1508115 -0.15467653 102 117 109
0.030460251 -0.15186422 -0.15453142 96 112 108
0.039505746 -0.15267973 -0.15415922 98 101 92
0.048018895 -0.15111496 -0.15166323 69 73 63
0.056279715 -0.14933054 -0.1489965 105 96 84
0.06339972 -0.14507651 -0.14419928 110 99 85
0.0697296 -0.14013854 -0.13887091 141 117 97
0.07770497 -0.13969322 -0.13747154 168 141 119
0.08684766 -0.14146197 -0.13796423 182 153 128
0.09858122 -0.14715429 -0.14174509 182 153 129
0.11161946 -0.15382166 -0.14626108 186 156 129
0.12400049 -0.15852152 -0.1490485 189 156 131
0.1360699 -0.16213137 -0.15087181 187 152 127
0.14873186 -0.16595335 -0.15281679 187 153 124
