ply
format ascii 1.0
element vertex 494
property float x
property float y
property float z
property uchar red
property uchar green
property uchar blue
element face 0
property list uchar int vertex_indices
end_header
-3.678804 2.5211244 -6.48975 151 162 176
-3.373652 2.5161793 -6.476432 150 161 175
-3.0612533 2.5043375 -6.4453697 160 169 183
-2.7399983 2.4819217 -6.38711 171 180 194
-2.4273713 2.46286 -6.3374896 171 181 195
-2.1086037 2.4314988 -6.2562394 161 171 185
-1.8042512 2.4094532 -6.198964 159 170 183
-1.5069418 2.390278 -6.149082 156 167 180
-1.2112201 2.3653147 -6.084325 155 166 179
-0.9124377 2.3175395 -5.9609203 156 166 180
-0.61929566 2.2491362 -5.7845035 149 160 173
-0.3417284 2.1767268 -5.5978184 139 150 163
-0.08156275 2.1107826 -5.4277883 141 150 164
0.16370001 2.05385 -5.280951 139 149 163
0.39748588 2.007067 -5.1602283 136 145 159
0.6199763 1.959614 -5.0378046 133 144 157
0.8272831 1.9030871 -4.892087 135 144 158
1.0250152 1.8534567 -4.7641153 137 146 158
1.2171453 1.8129917 -4.659716 142 151 165
1.4108955 1.786719 -4.5917945 146 155 169
1.6166089 1.780483 -4.5753555 148 157 171
1.8487451 1.8014443 -4.628776 142 151 163
2.1082053 1.8419569 -4.7323995 130 139 151
2.3782063 1.883235 -4.8379703 133 142 154
2.6751506 1.9369601 -4.975483 146 155 169
2.9808826 1.9880769 -5.106273 146 155 169
-3.5746322 2.2512815 -6.562131 143 154 165
-3.2728863 2.251691 -6.562703 150 159 171
-2.9454575 2.232706 -6.506768 148 157 171
-2.6338978 2.222796 -6.4772816 149 158 172
-2.3281877 2.2159047 -6.4565935 158 169 183
-2.0164692 2.2004213 -6.410884 160 171 182
-1.7126721 2.189729 -6.3791356 151 162 176
-1.4117573 2.1790307 -6.347376 161 172 186
-1.1070079 2.1552467 -6.2775187 161 172 186
-0.79870737 2.105238 -6.131319 153 162 175
-0.5007957 2.0427852 -5.948919 145 154 168
-0.2195252 1.9790776 -5.7629 141 150 164
0.044857945 1.9252295 -5.6056156 142 150 164
0.29583147 1.8781085 -5.4679394 157 166 180
0.5344418 1.8320092 -5.333263 156 166 180
0.7608724 1.7863959 -5.200026 151 162 175
0.9757696 1.7420702 -5.07056 155 164 178
1.1837196 1.7048918 -4.9619136 154 163 177
1.3885475 1.676003 -4.877403 153 162 174
1.6021304 1.6642767 -4.842831 152 161 175
1.8233509 1.6623954 -4.8368998 155 164 178
2.064485 1.6771121 -4.879241 151 160 174
2.3293457 1.7063274 -4.9637365 154 162 178
2.6166258 1.7452774 -5.076522 155 165 179
2.9107473 1.782026 -5.1828847 160 169 183
3.1841557 1.8014843 -5.238962 161 170 182
-3.8021474 1.989155 -6.6864443 148 157 169
-3.4934072 1.9890538 -6.6854424 139 148 160
-3.1659453 1.9772298 -6.6450534 138 149 158
-2.838217 1.9626722 -6.595488 142 150 164
-2.5310369 1.9605179 -6.5875983 143 152 166
-2.2232754 1.9572468 -6.5759597 158 167 179
-1.9175067 1.9549543 -6.5676093 159 170 181
-1.6121476 1.9522744 -6.55796 161 170 182
-1.3048375 1.9454203 -6.534295 159 169 183
-0.98922247 1.918308 -6.4426165 161 172 185
-0.67606956 1.8746661 -6.2954626 161 170 184
-0.37494773 1.8236439 -6.123562 157 167 181
-0.08986613 1.7766443 -5.965198 156 165 179
0.18086955 1.731967 -5.814659 161 170 184
0.43734723 1.6857795 -5.6590824 169 180 193
0.6814696 1.6443682 -5.5195627 164 173 187
0.91510016 1.6071017 -5.3939776 151 162 175
1.1405729 1.5745417 -5.2842073 153 162 176
1.3609937 1.5477301 -5.1937428 148 157 171
1.584576 1.5320245 -5.140548 155 163 177
1.8141934 1.5255002 -5.1181564 148 157 171
2.0451329 1.5214741 -5.104148 156 167 180
2.2965798 1.5319712 -5.1388416 177 189 200
2.5625732 1.5493064 -5.1964574 182 191 203
2.8467076 1.5737096 -5.2777567 169 178 192
3.1518757 1.6049823 -5.3820677 169 180 191
-3.7003775 1.7050995 -6.7717757 166 175 187
-3.3809075 1.7018516 -6.7581725 172 182 192
-3.0432105 1.6878216 -6.7017717 157 168 179
-2.7285438 1.684817 -6.6891446 156 167 179
-2.4252956 1.6889803 -6.704967 156 164 177
-2.1193764 1.6922133 -6.7170954 165 176 187
-1.8133811 1.6964637 -6.733258 159 171 182
-1.5015427 1.695852 -6.730126 157 168 181
-1.1835899 1.6861805 -6.6910524 163 174 187
-0.8627742 1.6641004 -6.6027675 164 175 188
-0.5451795 1.6273922 -6.4564795 164 175 188
-0.24120948 1.5915724 -6.3137465 165 175 189
0.04963437 1.5568888 -6.1755486 163 172 186
0.32651165 1.5165248 -6.014857 165 173 187
0.58942443 1.478323 -5.8627706 161 170 184
0.84268826 1.4476534 -5.740576 163 174 187
1.0865183 1.41938 -5.6279035 162 171 185
1.3254818 1.3969264 -5.538323 171 179 193
1.5636224 1.381036 -5.4747686 162 170 184
1.7957045 1.3649832 -5.410586 168 176 188
2.0341578 1.3571215 -5.3788695 181 190 202
2.279061 1.3548183 -5.369182 176 185 197
2.533826 1.3582646 -5.3822713 168 177 190
2.7909546 1.362257 -5.397521 173 182 194
3.0663662 1.3737934 -5.4426455 177 186 198
3.3156686 1.3727757 -5.438045 175 184 196
-3.9081438 1.4108971 -6.8513846 174 183 193
-3.5755231 1.4048467 -6.8212414 159 168 180
-3.249049 1.4002607 -6.798212 157 168 179
-2.9209144 1.393885 -6.766503 165 176 187
-2.614859 1.3977641 -6.7845626 161 173 184
-2.3130324 1.4052542 -6.8201394 176 188 201
-2.0088775 1.4134556 -6.8591585 168 181 196
-1.6980416 1.4191306 -6.8859124 168 180 195
-1.3779368 1.4178647 -6.8789954 170 181 194
-1.052801 1.4090676 -6.8355536 164 175 190
-0.7280938 1.393474 -6.7591634 177 187 201
-0.4081162 1.3701491 -6.6453032 181 192 204
-0.09859985 1.3462191 -6.5285344 179 188 200
0.1995188 1.3181815 -6.39188 162 171 184
0.484732 1.2893834 -6.25157 151 160 172
0.7574912 1.2614285 -6.1153784 154 163 177
1.0189146 1.2349808 -5.9865212 176 185 197
1.2775555 1.2172232 -5.899801 195 202 214
1.5334717 1.2036045 -5.833153 176 183 196
1.7796069 1.1875544 -5.7547417 168 177 189
2.0222397 1.1736679 -5.686827 160 169 181
2.2673326 1.1642578 -5.640609 169 178 190
2.5155997 1.1582649 -5.6109495 168 177 189
2.7543862 1.1494477 -5.5676208 185 194 206
3.0072265 1.1475121 -5.557621 176 185 199
3.2554371 1.1442628 -5.541262 195 204 212
-3.7545428 1.0955017 -6.849441 201 207 220
-3.4324439 1.0940927 -6.839774 195 204 216
-3.1067057 1.0911062 -6.8202496 167 179 190
-2.7959733 1.0932955 -6.833072 170 179 191
-2.5006137 1.1028079 -6.8916407 174 187 200
-2.2008297 1.1128528 -6.9535227 164 177 190
-1.893308 1.1217414 -7.008166 180 191 204
-1.5761034 1.1273633 -7.0423927 217 225 231
-1.2449399 1.1232977 -7.0161204 231 238 242
-0.9141327 1.1167445 -6.9743223 221 229 235
-0.58624965 1.1084721 -6.9217997 201 211 221
-0.2622689 1.0963283 -6.845126 207 215 223
0.054425497 1.0798837 -6.7416306 225 231 240
0.36016688 1.0593413 -6.6125875 230 236 243
0.6535741 1.0381594 -6.479585 218 223 230
0.93639064 1.0188385 -6.358228 222 230 236
1.2102913 1.0014244 -6.248797 252 255 255
1.4824938 0.98963016 -6.1744456 255 254 255
1.7478564 0.97784686 -6.1001816 255 254 255
2.0003467 0.96316475 -6.0078583 254 255 255
2.2519603 0.95171714 -5.9357276 220 226 233
2.491553 0.93824893 -5.8510165 220 227 231
2.7244844 0.92517537 -5.7687874 227 231 236
2.956812 0.9142637 -5.7000527 211 217 226
3.2033696 0.90919125 -5.667725 226 232 237
3.4187737 0.8967244 -5.5893292 237 242 245
-3.8976893 0.7750795 -6.811714 220 226 231
-3.5965705 0.7784103 -6.8399568 231 235 241
-3.297376 0.7828314 -6.8777695 226 231 240
-2.9914165 0.7864098 -6.9081693 213 221 229
-2.6919553 0.7927465 -6.9627805 194 205 217
-2.3963447 0.8020858 -7.043736 159 172 185
-2.0876546 0.809289 -7.105917 171 181 193
-1.7708349 0.8154311 -7.1587663 198 208 215
-1.4402426 0.8165764 -7.1677485 199 205 214
-1.104493 0.8145681 -7.1490574 224 230 237
-0.77061117 0.8127455 -7.132001 205 215 222
-0.44080317 0.81561005 -7.156063 197 207 216
-0.10741989 0.8087613 -7.0949297 164 174 188
0.21928465 0.7981143 -7.000508 182 191 201
0.53438985 0.7832598 -6.869222 189 196 204
0.8339313 0.7652782 -6.7105637 179 184 193
1.1230527 0.7501569 -6.577021 195 203 213
1.4060471 0.73831356 -6.4722466 191 200 211
1.6884085 0.7303908 -6.4018583 188 199 212
1.9604317 0.7210562 -6.3191214 185 196 207
2.2239082 0.7114343 -6.233891 215 223 229
2.473228 0.7000355 -6.133124 211 217 222
2.6803253 0.68028617 -5.9592576 215 220 227
2.8902714 0.6649007 -5.8236537 226 230 235
3.1201386 0.6563492 -5.747919 211 217 222
3.3483458 0.64883256 -5.6812663 163 168 170
-3.0921197 0.37959826 -5.62371 128 130 127
-2.9276667 0.39266205 -5.8159957 87 75 76
-2.8500624 0.42121297 -6.2374725 140 156 169
-2.8136134 0.46300173 -6.8547106 136 147 156
-2.5885348 0.48045847 -7.1116314 155 162 174
-2.285639 0.4864562 -7.198913 161 167 169
-1.9588548 0.48853526 -7.2281923 178 186 199
-1.6297381 0.49074674 -7.2594185 184 193 205
-1.2891918 0.4897391 -7.243036 183 195 205
-0.9155831 0.470968 -6.9640646 100 107 112
-0.58412176 0.46510816 -6.8760343 93 99 104
-0.26111138 0.45977727 -6.795854 78 82 88
0.05461943 0.45561793 -6.7330146 71 73 79
0.36623833 0.45355776 -6.7012076 148 156 163
0.67648834 0.45253345 -6.6847124 165 177 185
0.99677366 0.4567936 -6.746244 180 192 201
1.2959957 0.45169947 -6.6696687 170 180 192
1.5824282 0.4450005 -6.5694366 147 161 169
1.8509033 0.43625665 -6.439073 136 152 164
2.0859923 0.42319137 -6.24501 123 131 138
2.29176 0.40811232 -6.0213237 116 125 129
2.477476 0.39314723 -5.799409 151 161 167
2.6643605 0.38129848 -5.6235323 139 145 154
2.8722162 0.37431055 -5.519377 125 134 138
3.097089 0.37051335 -5.4622884 164 168 174
3.3136013 0.36637494 -5.400195 157 163 168
-2.8956127 0.106239825 -5.0451436 148 151 147
-2.6691127 0.106622994 -5.0607767 143 147 141
-2.4583254 0.10776047 -5.1121645 109 108 109
-2.2569711 0.10959101 -5.1963487 109 110 113
-2.0304518 0.11048245 -5.2359595 60 49 51
-1.7989887 0.11129918 -5.271995 68 53 57
-1.5448508 0.11073457 -5.242619 143 146 150
-1.323109 0.11269821 -5.3328624 129 132 130
-1.4797019 0.15523651 -7.3412766 125 131 143
-1.1249592 0.15357554 -7.259098 113 127 135
-0.7437891 0.1452664 -6.8630095 116 120 125
-0.42088172 0.14427623 -6.812818 143 151 159
-0.10307557 0.14393455 -6.7932715 97 103 108
0.2127176 0.14343442 -6.766275 113 123 130
0.5259579 0.14291224 -6.738263 140 149 157
0.8421413 0.143328 -6.7544675 113 115 125
1.1496806 0.14247973 -6.7111354 120 124 130
1.44461 0.14079121 -6.6283007 148 158 169
1.7169758 0.13790573 -6.489243 124 134 144
1.9698057 0.13456622 -6.3289766 120 129 139
2.196444 0.13055304 -6.1372147 127 132 135
2.3711598 0.12474349 -5.861267 75 79 75
2.5477047 0.12022852 -5.646371 137 147 157
2.7250679 0.11660107 -5.4733367 96 99 98
2.919168 0.11425628 -5.3606286 118 125 128
3.1353478 0.113084026 -5.302998 141 143 148
-2.525736 -0.11685921 -4.5795927 131 134 124
-2.235053 -0.11292289 -4.4266677 25 23 32
-2.0050848 -0.11157494 -4.3751173 62 64 72
-1.7978042 -0.11133658 -4.367046 45 51 56
-1.601736 -0.11183037 -4.387686 36 35 42
-1.4085393 -0.1127099 -4.4234734 26 30 35
-1.2288243 -0.1151676 -4.521218 65 67 74
-1.0643224 -0.12037864 -4.727107 189 195 201
-0.9606287 -0.13700005 -5.381185 104 103 105
-0.90233916 -0.1741592 -6.8423667 112 117 120
-0.5793182 -0.17300539 -6.7990313 152 161 171
-0.26230294 -0.1731737 -6.8076344 133 145 153
0.0556859 -0.17373653 -6.831753 102 107 108
0.37446865 -0.17360201 -6.8284626 100 104 108
0.69032687 -0.17280109 -6.7989554 107 111 115
0.9978649 -0.17103936 -6.731624 64 46 41
1.2958132 -0.16884297 -6.6471457 58 32 23
1.5872395 -0.16678755 -6.5681686 110 114 121
1.8579319 -0.163554 -6.4427457 121 132 141
2.0991576 -0.1589753 -6.264258 76 82 83
2.2917771 -0.15227559 -6.0020823 43 42 35
2.4369974 -0.14422294 -5.686423 53 55 53
2.6073563 -0.13908873 -5.485652 59 63 63
2.796308 -0.13577026 -5.356379 73 74 74
2.9904733 -0.13322312 -5.257461 98 101 103
3.2006547 -0.13171597 -5.199528 146 151 156
-2.5029278 -0.3140911 -4.3475313 108 111 113
-2.1961784 -0.29989648 -4.1513686 101 108 115
-2.0072908 -0.30061287 -4.161524 97 103 111
-1.8224608 -0.30216345 -4.1832237 112 118 125
-1.6445079 -0.3053721 -4.227874 86 91 100
-1.4583043 -0.30772552 -4.260693 80 84 94
-1.2665896 -0.30948833 -4.285341 79 85 94
-1.0733776 -0.31149286 -4.313337 102 108 117
-0.89042217 -0.31810486 -4.405118 194 202 208
-0.77734923 -0.36117268 -5.001595 117 117 115
-0.72992915 -0.48488933 -6.7146893 118 123 124
-0.41556177 -0.48430058 -6.706929 114 117 117
-0.10211532 -0.48484358 -6.714839 75 73 71
0.20676628 -0.47313514 -6.5531034 184 189 190
0.5165164 -0.47614336 -6.5951424 82 84 88
0.8069813 -0.46572328 -6.4512234 82 82 87
1.0811155 -0.4540836 -6.2903967 91 91 98
1.3503022 -0.4457681 -6.1755924 87 91 96
1.6036973 -0.4360703 -6.0416284 104 102 98
1.8460377 -0.4267081 -5.9122972 84 83 73
2.071912 -0.41646346 -5.770727 70 68 60
2.2701263 -0.40365195 -5.5935802 79 79 74
2.437784 -0.38860956 -5.3855057 121 121 116
2.532723 -0.36587402 -5.070818 180 192 198
2.7350674 -0.36121607 -5.0065737 167 178 183
2.9376001 -0.35730973 -4.9527373 167 175 181
-2.1972086 -0.4730837 -3.9716542 85 73 76
-2.0280635 -0.47696754 -4.004278 100 102 109
-1.8501061 -0.4793657 -4.024436 108 112 118
-1.6777483 -0.4839302 -4.062773 108 114 121
-1.4981284 -0.48730808 -4.091153 115 122 127
-1.3128333 -0.48957026 -4.11017 128 132 138
-1.126232 -0.49205092 -4.131021 54 19 30
-0.939843 -0.49568677 -4.161567 78 33 41
-0.7806052 -0.5192993 -4.359764 80 79 80
-0.63470984 -0.571658 -4.7992125 95 93 95
-0.4832347 -0.6736265 -5.655014 150 154 153
-0.21570784 -0.66515166 -5.5839343 137 138 139
0.044821702 -0.65119696 -5.466863 100 101 100
0.29404557 -0.6364356 -5.343021 153 151 146
0.5337655 -0.62409073 -5.239457 138 137 135
0.76570505 -0.61326164 -5.148613 122 125 125
0.9954625 -0.6062698 -5.0899725 121 126 127
1.2006223 -0.58987594 -4.9524217 129 132 132
1.3806479 -0.5684296 -4.7724633 138 138 135
1.5535285 -0.55042034 -4.621349 112 109 109
1.7510878 -0.5444838 -4.5715604 112 115 115
1.9494215 -0.54004735 -4.5343614 109 108 109
2.1312237 -0.5323456 -4.469755 117 120 120
2.2621949 -0.51445544 -4.3196335 132 139 141
2.4187353 -0.5048371 -4.238938 138 142 146
2.6179504 -0.5049054 -4.239545 129 133 137
-2.2321498 -0.64214563 -3.8651974 104 109 110
-2.0575387 -0.6441462 -3.87718 75 79 81
-1.8844123 -0.6470508 -3.894601 91 96 101
-1.7159549 -0.6523604 -3.926491 100 106 111
-1.543094 -0.65707844 -3.954822 91 97 102
-1.3654137 -0.66076225 -3.9769287 102 107 108
-1.1892772 -0.66648674 -4.0113125 102 105 108
-1.0114108 -0.67322284 -4.051781 98 102 106
-0.83839285 -0.6870618 -4.134979 122 127 128
-0.6631398 -0.706862 -4.2540364 93 96 98
-0.4816554 -0.7342249 -4.4185853 102 104 106
-0.3109301 -0.8316787 -5.0047736 122 129 132
-0.074253805 -0.8103325 -4.876294 123 129 132
0.15057503 -0.789914 -4.7533984 123 129 130
0.36738008 -0.776855 -4.674777 117 124 125
0.576761 -0.7636966 -4.5955596 121 128 129
0.7833795 -0.75501454 -4.543271 118 124 125
0.97271365 -0.7369324 -4.4344406 122 128 129
1.1372294 -0.70971864 -4.2706857 124 129 131
1.2850262 -0.68177795 -4.1025634 121 124 126
1.4247991 -0.6574088 -3.9559274 123 126 128
1.5963479 -0.65162444 -3.92108 113 118 119
1.7931064 -0.6562563 -3.9488857 120 123 125
1.9642729 -0.65152395 -3.9203665 121 126 127
2.0690079 -0.6274482 -3.7755067 123 127 129
2.252821 -0.6292586 -3.7863426 122 127 127
-2.0824337 -0.8004144 -3.7524128 75 78 78
-1.9135201 -0.8034032 -3.7663195 54 58 60
-1.7458721 -0.8075927 -3.7858517 49 52 54
-1.5799644 -0.813635 -3.8140638 53 56 58
-1.4123425 -0.8202345 -3.8448858 68 70 73
-1.245837 -0.82952076 -3.8882945 69 72 74
-1.0758729 -0.83930874 -3.934052 94 98 100
-0.90058005 -0.8481503 -3.9753723 122 126 130
-0.7262559 -0.86278284 -4.0438213 94 97 99
-0.5572601 -0.89636385 -4.201038 97 101 103
-0.3957977 -0.9855172 -4.61859 127 130 132
-0.17616314 -0.9706417 -4.548782 127 132 131
0.036511786 -0.94458836 -4.426615 125 128 128
0.2374806 -0.91755766 -4.2998767 126 130 128
0.4331879 -0.9043621 -4.237952 125 128 128
0.6177165 -0.88346237 -4.1399436 124 130 129
0.7908677 -0.8601801 -4.03078 126 131 132
0.9322958 -0.81804144 -3.8333013 129 133 135
1.0463549 -0.7694134 -3.605438 124 127 128
1.153973 -0.73025846 -3.421955 127 130 130
1.2610638 -0.7003853 -3.2819533 121 124 124
1.4515634 -0.7183003 -3.36577 117 122 123
1.5720382 -0.7014375 -3.286708 122 123 122
1.6392888 -0.66596323 -3.1204903 110 112 111
1.7700634 -0.6600033 -3.092498 129 131 127
1.9095824 -0.65795773 -3.0828373 103 101 98
-2.096612 -0.9432248 -3.6191425 91 93 93
-1.9391617 -0.94939536 -3.6426835 67 70 72
-1.7809185 -0.95634145 -3.6691968 104 108 112
-1.6263747 -0.96698326 -3.7098806 128 134 134
-1.466417 -0.97658384 -3.746569 77 83 88
-1.3021694 -0.9855681 -3.7808914 36 39 41
-1.1324509 -0.9926087 -3.807759 49 52 53
-0.9613045 -1.00082 -3.8391132 35 37 40
-0.7882753 -1.0104313 -3.8758328 44 45 48
-0.62212265 -1.0373044 -3.9787323 130 135 134
-0.4644891 -1.1076223 -4.248187 107 105 102
-0.26360902 -1.1032621 -4.231326 148 145 135
-0.06298132 -1.0766482 -4.129154 121 123 119
0.12717329 -1.0427864 -3.999203 131 127 120
0.30455852 -1.0070648 -3.862133 148 143 131
0.46442613 -0.96173584 -3.688244 135 127 118
0.61146486 -0.9217155 -3.5347157 141 134 124
0.72690237 -0.86134756 -3.3032064 155 146 130
0.8245315 -0.8048596 -3.0865843 140 131 123
0.83450925 -0.6925332 -2.6559644 108 110 112
0.81820005 -0.590502 -2.2648313 107 113 112
0.8815559 -0.56287473 -2.1588738 115 118 118
0.9446876 -0.5408279 -2.0743096 99 102 102
0.9797064 -0.50831985 -1.9496619 101 107 106
1.0195224 -0.48365587 -1.8550814 101 104 104
1.0463128 -0.4571898 -1.7536021 108 113 112
-1.9729842 -1.0919068 -3.5440416 29 30 30
-1.8281765 -1.1052065 -3.5870461 31 33 35
-1.6831841 -1.1210963 -3.638449 30 31 34
-1.5326666 -1.1364971 -3.6882617 19 22 24
-1.3772084 -1.1517107 -3.7374637 15 16 18
-1.2188861 -1.1686465 -3.792246 68 66 63
-1.0425769 -1.1712055 -3.8003957 25 28 28
-0.8686379 -1.1780531 -3.822454 45 48 50
-0.68320346 -1.1688399 -3.7924216 61 63 67
-0.5264581 -1.2195588 -3.9567537 46 48 52
-0.33258104 -1.1928078 -3.869846 88 93 94
-0.14587379 -1.1581514 -3.7573094 89 96 95
0.030100495 -1.1179504 -3.6268027 81 88 89
0.19101991 -1.0623069 -3.4462335 77 84 85
0.33447674 -1.005285 -3.26121 88 93 94
0.4485868 -0.92370737 -2.996585 87 92 93
0.53972906 -0.845217 -2.7419906 81 86 87
0.60781896 -0.7679204 -2.4912865 84 88 92
0.64716107 -0.6852071 -2.223042 74 76 81
0.67361176 -0.6137978 -1.9914634 81 83 85
0.73131204 -0.58485734 -1.8975706 92 95 97
0.7916373 -0.56409395 -1.830191 92 95 95
0.8503269 -0.54635835 -1.772631 105 111 108
0.9120954 -0.53359675 -1.7311972 121 124 122
0.96606785 -0.5187422 -1.6829835 113 116 114
1.0283327 -0.5102567 -1.6554154 109 112 112
-2.041445 -1.2495441 -3.5127852 24 25 22
-1.896356 -1.2632071 -3.5510213 7 3 5
-1.7583586 -1.2847029 -3.6112618 43 44 45
-1.6183025 -1.3091497 -3.6797872 12 13 16
-1.4637228 -1.3263181 -3.7278593 17 20 20
-1.2957615 -1.3344043 -3.7504125 2 1 2
-1.126344 -1.3433216 -3.7752976 2 1 2
-0.94650716 -1.340844 -3.7681727 44 45 46
-0.7572239 -1.320766 -3.7116103 48 51 51
-0.5699335 -1.293153 -3.633889 46 47 48
-0.3877845 -1.2584958 -3.5363886 68 73 74
-0.21448326 -1.2219352 -3.433551 81 86 88
-0.050458178 -1.1758298 -3.303918 75 80 81
0.1007282 -1.122813 -3.154886 73 78 79
0.23445223 -1.0544522 -2.9627788 72 77 79
0.34604144 -0.97478986 -2.7389534 76 81 82
0.4304866 -0.8827771 -2.4804683 82 85 87
0.4956244 -0.79898286 -2.2450817 79 82 84
0.5576298 -0.74055374 -2.080933 80 83 85
0.57592773 -0.65026 -1.8273369 76 79 82
0.62659204 -0.61528915 -1.7290785 66 68 73
0.6862158 -0.5961647 -1.6753147 77 79 83
0.7289772 -0.5678519 -1.5957619 83 85 89
0.8002737 -0.5649938 -1.5876688 111 112 113
0.8738056 -0.564066 -1.5849952 115 116 115
0.94832355 -0.563869 -1.5843725 87 89 91
-1.9399177 -1.4015917 -3.4736059 32 34 34
-1.7805154 -1.4052445 -3.4824915 18 16 18
-1.6298101 -1.4172091 -3.511963 41 41 42
-1.4682484 -1.4213839 -3.5221374 33 36 36
-1.3089149 -1.4290661 -3.540998 5 6 11
-1.1427993 -1.430521 -3.5444345 7 6 9
-0.9664392 -1.4174646 -3.5119352 18 20 24
-0.78563344 -1.3911413 -3.4465857 46 47 48
-0.6056957 -1.3530111 -3.3520064 53 56 56
-0.4347946 -1.3152308 -3.258302 73 76 77
-0.27140087 -1.2712166 -3.1491716 72 77 78
-0.11789529 -1.22294 -3.0294983 69 74 73
0.02424059 -1.1711987 -2.901259 68 73 72
0.15270244 -1.1080981 -2.744911 63 68 69
0.26269254 -1.0304722 -2.5526197 68 73 74
0.34914726 -0.9384304 -2.3246622 66 71 72
0.40996775 -0.83804137 -2.0760643 70 75 76
0.45731872 -0.75421983 -1.8684968 73 76 78
0.49440002 -0.6833427 -1.6929865 82 86 88
0.5099871 -0.60664064 -1.5030767 70 72 75
0.5638346 -0.5886646 -1.4585191 68 70 72
0.62946147 -0.5855665 -1.4507838 67 69 71
0.69904566 -0.58639556 -1.4527669 76 79 81
0.77425957 -0.59137505 -1.4650202 68 71 73
0.849984 -0.5958921 -1.4761277 67 70 72
0.9371729 -0.60715026 -1.5039133 74 75 76
-1.8979886 -1.4696294 -3.2556849 56 53 53
-1.7404672 -1.4666457 -3.2489178 73 74 73
-1.5867603 -1.4666154 -3.24869 49 50 50
-1.4347072 -1.4682775 -3.2522087 53 54 54
-1.2727078 -1.4589463 -3.2313912 51 53 55
-1.1119119 -1.4486438 -3.2084253 41 45 45
-0.95264304 -1.4373969 -3.1833713 45 48 48
-0.7867029 -1.4099842 -3.122539 45 48 48
-0.6252252 -1.3797542 -3.055477 59 62 62
-0.4689444 -1.3462703 -2.9812205 62 64 65
-0.3170996 -1.3022106 -2.8835661 61 64 64
-0.17404883 -1.2550069 -2.778964 63 66 68
-0.040851615 -1.2067214 -2.671978 69 72 72
0.081809096 -1.1525227 -2.5519187 71 75 76
0.19156612 -1.0895231 -2.4123986 62 65 67
0.2848162 -1.0147476 -2.2468379 56 61 62
0.35646614 -0.92459136 -2.0472648 60 62 64
0.40523764 -0.82631904 -1.8297567 59 62 64
0.45071688 -0.75714225 -1.6766347 60 63 64
0.48993826 -0.69974726 -1.54959 67 68 68
0.5411563 -0.6722149 -1.4886128 61 64 64
0.6011555 -0.6606819 -1.4630296 63 64 64
0.6623695 -0.652728 -1.4453651 61 65 63
0.73189867 -0.65369105 -1.4474235 56 59 59
0.80914044 -0.660787 -1.4630445 62 65 64
0.8700272 -0.65445507 -1.4489696 70 73 69
