ply
format ascii 1.0
element vertex 494
property float x
property float y
property float z
property uchar red
property uchar green
property uchar blue
element face 0
property list uchar int vertex_indices
end_header
-1.0682883 -1.4037342 -2.4396877 115 71 53
-1.0689499 -1.2908849 -2.4415183 119 77 60
-1.0720333 -1.1805072 -2.448881 126 85 72
-1.075429 -1.069729 -2.4569595 131 92 82
-1.0799046 -0.95913136 -2.4675071 139 106 104
-1.0859189 -0.8487279 -2.481574 152 148 177
-0.9906035 -0.6685725 -2.26406 145 107 98
-0.9916081 -0.5634529 -2.2666533 150 102 69
-0.98729736 -0.4556134 -2.257096 158 110 70
-0.9895586 -0.35097647 -2.262562 169 123 80
-1.0062975 -0.24939848 -2.3011353 174 128 81
-0.9501214 -0.13388889 -2.1729648 181 138 88
-0.996815 -0.033876345 -2.2800508 179 147 92
-0.9974455 0.072831035 -2.2817929 183 150 96
-0.9940862 0.17900823 -2.2744071 181 151 96
-0.9925567 0.2850421 -2.2712064 177 145 93
-0.9916624 0.39104998 -2.2694585 170 139 88
-0.99223286 0.49765134 -2.271063 160 131 84
-0.99447757 0.605445 -2.2765002 152 124 81
-1.0806669 0.77384037 -2.4741192 195 231 247
-1.0834986 0.8921944 -2.4809287 160 139 107
-1.0806075 1.0058889 -2.4746351 180 198 219
-1.0774004 1.1186907 -2.4676163 153 127 95
-1.0748607 1.231623 -2.4621239 151 154 159
-1.0726323 1.3444557 -2.457344 145 121 88
-1.0692368 1.4552767 -2.4498887 150 157 166
-0.9552225 -1.3484493 -2.4429314 107 66 51
-0.95829624 -1.238675 -2.4511833 116 75 62
-0.9607258 -1.1273508 -2.45779 126 87 77
-0.9647607 -1.0170788 -2.468506 129 91 83
-0.96900654 -0.90597993 -2.4797657 142 117 125
-0.9682597 -0.78973246 -2.4782507 152 159 196
-0.88948494 -0.619257 -2.2770026 149 103 72
-0.8882793 -0.5122964 -2.2742805 153 105 66
-0.88425833 -0.40427828 -2.2643483 161 113 71
-0.89621806 -0.30256528 -2.2953398 172 125 78
-0.8360806 -0.18219309 -2.1416714 176 133 82
-0.8894118 -0.08735049 -2.2786393 183 147 91
-0.89376783 0.019285318 -2.2901657 183 149 93
-0.88830966 0.12563914 -2.2765455 183 151 95
-0.88889205 0.23231792 -2.2784035 181 149 95
-0.8885887 0.33885664 -2.277992 173 142 91
-0.8886158 0.4455459 -2.2784271 163 134 87
-0.8896263 0.5529099 -2.2813842 155 127 82
-0.9161799 0.6795039 -2.3498528 221 242 243
-0.97115636 0.83702046 -2.4912508 155 134 109
-0.9680831 0.950842 -2.4837668 155 142 128
-0.9653695 1.0643837 -2.4772038 147 123 93
-0.9625097 1.1771564 -2.4702632 145 126 101
-0.9603453 1.2902368 -2.4651055 141 115 85
-0.9576587 1.4020941 -2.4586055 140 117 90
-0.9543686 1.5124099 -2.450554 134 125 115
-0.8436234 -1.4096731 -2.4506645 104 61 47
-0.8454705 -1.2985073 -2.4565117 106 66 52
-0.8479105 -1.1876028 -2.4640841 113 72 59
-0.850183 -1.0757561 -2.4711728 115 77 68
-0.85264605 -0.96343946 -2.4788187 123 91 85
-0.856537 -0.85180527 -2.4906187 139 121 132
-0.78587866 -0.6749956 -2.2856266 136 93 68
-0.78736407 -0.5694778 -2.2903967 148 99 62
-0.78470045 -0.4610524 -2.2830985 155 107 66
-0.78303325 -0.35373527 -2.2786965 167 120 74
-0.7522969 -0.23761176 -2.1896904 174 129 79
-0.6889079 -0.12389018 -2.0055983 179 137 82
-0.7765738 -0.034045864 -2.261237 182 150 94
-0.7801313 0.07199994 -2.2720425 183 150 90
-0.7839641 0.17914249 -2.2836545 183 153 96
-0.784162 0.28607088 -2.284682 175 145 91
-0.78478 0.39332938 -2.286934 169 139 89
-0.7845387 0.5002748 -2.2866821 157 130 82
-0.7847749 0.60758966 -2.2878227 147 121 77
-0.8588575 0.78224367 -2.504268 163 179 191
-0.8564466 0.89714223 -2.4977326 149 128 99
-0.85381496 1.0111924 -2.490551 140 127 121
-0.8510035 1.1243572 -2.4828422 139 117 86
-0.8490333 1.2380499 -2.477585 127 114 109
-0.84678745 1.350835 -2.4715216 134 111 83
-0.8433734 1.4610533 -2.4620457 235 256 273
-0.7334441 -1.3607947 -2.4659162 104 78 82
-0.7351478 -1.2490493 -2.4722471 108 85 92
-0.73604774 -1.1354502 -2.4758785 117 95 105
-0.7377187 -1.0225568 -2.4821055 114 100 111
-0.7408619 -0.9108686 -2.4932895 127 117 136
-0.7256579 -0.7784278 -2.4427261 130 107 109
-0.6804872 -0.6232197 -2.2912514 137 92 58
-0.6821574 -0.51766944 -2.2974372 149 103 63
-0.68331826 -0.41121197 -2.3019104 159 113 67
-0.18046157 -0.08001467 -0.6083004 115 71 39
-0.20568475 -0.05886012 -0.69345003 106 64 33
-0.40013707 -0.051813006 -1.3490713 98 69 41
-0.4012706 0.011265986 -1.3532245 82 65 40
-0.39731202 0.07380662 -1.3402071 91 72 46
-0.4277139 0.14690839 -1.4430894 115 95 60
-0.68129617 0.34128708 -2.2990482 174 143 89
-0.67986065 0.447974 -2.294769 163 134 85
-0.6797358 0.55535334 -2.2949123 154 126 81
-0.72376215 0.70578814 -2.444135 153 172 191
-0.74326485 0.8424599 -2.5106056 149 129 102
-0.73959047 0.9554697 -2.4988115 144 126 104
-0.7357463 1.0671527 -2.4864383 142 119 86
-0.73313564 1.1796837 -2.4782279 136 121 102
-0.73166883 1.2934899 -2.4738808 135 112 83
-0.7307684 1.4080042 -2.4714468 131 116 101
-0.727747 1.5178937 -2.4618378 109 97 80
-0.62314653 -1.4292611 -2.4853787 97 54 40
-0.62335306 -1.3143018 -2.4869733 103 62 47
-0.62311244 -1.1983092 -2.4867852 108 70 58
-0.6233396 -1.0831215 -2.4884639 111 78 68
-0.62459457 -0.9693475 -2.4942477 119 89 84
-0.62567455 -0.85477084 -2.4993365 139 127 144
-0.57731986 -0.6813414 -2.3069286 135 99 88
-0.57585555 -0.57243335 -2.3017948 141 96 60
-0.5771342 -0.4661967 -2.307623 150 104 62
-0.55724984 -0.34623426 -2.2288263 146 102 60
-0.15304552 -0.066318356 -0.6126465 109 67 36
-0.29181412 -0.072203025 -1.1681048 102 65 38
-0.34493583 -0.02092064 -1.3810962 82 65 40
-0.33947825 0.04293768 -1.3596759 90 71 47
-0.33736604 0.10585286 -1.3516409 88 69 44
-0.57622004 0.28844577 -2.3090053 176 146 89
-0.57474273 0.39549533 -2.3038068 171 140 88
-0.5749457 0.50355154 -2.305341 160 133 85
-0.5741639 0.61072904 -2.3029273 149 124 79
-0.62880397 0.78701234 -2.5228326 175 214 253
-0.6262727 0.9016927 -2.5134654 146 128 104
-0.62410295 1.0161088 -2.5055444 135 139 159
-0.62220794 1.1303056 -2.4987216 138 119 96
-0.62006605 1.2433928 -2.4909031 122 113 108
-0.6183207 1.3566402 -2.4846728 131 114 91
-0.61741495 1.4713273 -2.4818134 124 105 82
-0.508791 -1.3761979 -2.494454 97 56 43
-0.5090221 -1.2610813 -2.4966006 103 64 50
-0.508893 -1.1449299 -2.4969823 111 72 61
-0.5094228 -1.0300496 -2.500598 114 82 74
-0.50996625 -0.91483265 -2.5042844 123 96 95
-0.50931984 -0.79738426 -2.5021298 145 150 178
-0.47010186 -0.6285318 -2.3104548 131 90 63
-0.47178248 -0.5228344 -2.319658 144 99 61
-0.47072503 -0.41384757 -2.315405 154 110 66
-0.4177278 -0.27145052 -2.0556328 161 115 68
-0.22794753 -0.09566979 -1.1224763 108 69 40
-0.28210694 -0.05363724 -1.389588 100 70 44
-0.3041895 0.012115233 -1.4989241 64 49 31
-0.28874657 0.078017615 -1.4234428 97 78 53
-0.47114632 0.23560269 -2.3231704 174 144 89
-0.4687008 0.34251586 -2.3120625 174 145 88
-0.4684788 0.4505488 -2.3119156 164 135 84
-0.46822733 0.5585565 -2.3116233 155 129 83
-0.5001349 0.71231884 -2.4701207 216 246 249
-0.5107364 0.84572184 -2.5235035 146 128 99
-0.50940746 0.961657 -2.5179741 150 160 171
-0.5082432 1.0774478 -2.5132544 139 117 86
-0.50697064 1.1925669 -2.5079956 156 177 201
-0.50555766 1.3068541 -2.5020375 132 112 82
-0.5050743 1.4232248 -2.5006769 161 174 186
-0.50363046 1.5365646 -2.4945586 121 102 73
-0.39351538 -1.4380261 -2.5012867 95 53 35
-0.39370957 -1.3229476 -2.5039198 103 61 46
-0.39375794 -1.2071531 -2.505629 108 69 53
-0.39356515 -1.0905067 -2.5058053 109 74 63
-0.3938391 -0.9749736 -2.5089543 117 87 82
-0.39479128 -0.86060107 -2.5164287 132 116 131
-0.36894333 -0.6950232 -2.3530543 133 100 89
-0.36193222 -0.5745092 -2.3096538 135 94 61
-0.32321537 -0.41708374 -2.0638459 108 65 39
-0.3108855 -0.3087395 -1.9862686 124 80 47
-0.1639607 -0.11390248 -1.0485978 191 140 78
-0.19572736 -0.07764519 -1.2522793 182 135 70
-0.23967889 -0.023587447 -1.5341347 122 102 68
-0.2657936 0.05326126 -1.7021456 201 165 96
-0.27585652 0.13783748 -1.7675503 206 164 88
-0.30370694 0.24273244 -1.9470052 99 79 48
-0.30716214 0.33767614 -1.9702591 96 78 47
-0.36154273 0.50599307 -2.3202202 160 134 82
-0.36128274 0.6143436 -2.3198667 153 127 81
-0.39384088 0.78830487 -2.5302765 155 142 126
-0.3929673 0.9051211 -2.5260994 153 136 112
-0.3920946 1.0215732 -2.521923 147 126 92
-0.39150912 1.1384932 -2.5195901 147 133 110
-0.39094058 1.2552738 -2.5173643 137 116 84
-0.3903725 1.3718728 -2.5151389 138 131 124
-0.39000797 1.4890641 -2.5142229 132 112 83
-0.27762732 -1.3842458 -2.5096712 94 54 38
-0.27767563 -1.268697 -2.5122201 103 64 50
-0.27762726 -1.1524861 -2.5138984 103 66 54
-0.27742282 -1.0355122 -2.5141664 112 78 71
-0.27755958 -0.91961807 -2.5175283 117 91 89
-0.27879664 -0.80656916 -2.5308788 147 165 206
-0.25795016 -0.6376763 -2.3437328 132 91 58
-0.24295525 -0.49812728 -2.2094476 128 84 52
-0.21652198 -0.3524144 -1.9708986 118 75 51
-0.10560667 -0.12709472 -0.9628922 192 142 79
-0.12528014 -0.09759889 -1.1429533 192 141 75
-0.1520538 -0.053834315 -1.3880645 170 130 76
-0.18070088 0.012948615 -1.6506908 182 144 79
-0.18796581 0.09368284 -1.7184569 204 162 83
-0.19701192 0.18241626 -1.8026224 223 189 126
-0.21471128 0.29073757 -1.9661069 84 67 40
-0.25198358 0.4492361 -2.3091128 164 137 85
-0.25411573 0.56230223 -2.330631 159 134 83
-0.27078897 0.71580017 -2.4855766 253 255 256
-0.27613458 0.84910333 -2.5367873 154 136 106
-0.2756251 0.966741 -2.534284 168 183 209
-0.27514598 1.0842884 -2.5320559 149 127 95
-0.27468342 1.2017245 -2.5299768 120 112 114
-0.27418885 1.3188367 -2.5276005 145 124 94
-0.2739223 1.4369453 -2.5273225 137 115 85
-0.27326313 1.5528249 -2.5234208 129 107 76
-0.16140571 -1.4485482 -2.5202596 93 50 34
-0.16120388 -1.3316442 -2.52097 100 59 46
-0.1610812 -1.2152466 -2.5229218 98 61 47
-0.16091281 -1.0983328 -2.5241644 102 67 56
-0.16079956 -0.9816154 -2.5262768 113 83 78
-0.16078247 -0.86519504 -2.5299075 126 115 126
-0.15286611 -0.71167064 -2.409209 135 108 104
-0.14622495 -0.574278 -2.3082418 131 89 53
-0.12960796 -0.4143386 -2.0494466 99 58 31
-0.07851047 -0.19346775 -1.2445643 142 96 54
-0.07429548 -0.12835658 -1.1797421 166 109 63
-0.07216791 -0.07133365 -1.1478319 124 89 47
-0.080724046 -0.019959718 -1.2855695 199 163 106
-0.103990994 0.05150607 -1.6578351 129 88 43
-0.10972812 0.13616648 -1.7518753 216 174 94
-0.122851975 0.24429806 -1.9641272 105 88 52
-0.12368233 0.33879983 -1.9804952 100 80 50
-0.14647365 0.51135933 -2.3485887 164 138 84
-0.14574048 0.6189332 -2.34054 158 133 85
-0.15859279 0.7936306 -2.5507069 164 147 125
-0.15814683 0.91170233 -2.5475755 154 162 169
-0.15782826 1.0303345 -2.5464883 152 131 95
-0.15755987 1.1492554 -2.5462084 161 176 190
-0.15717088 1.2672052 -2.5439785 145 124 90
-0.15666187 1.3839111 -2.5397992 156 159 166
-0.156141 1.5001308 -2.5354152 139 119 95
-0.044037092 -1.3959913 -2.5316002 91 49 30
-0.04386149 -1.2806997 -2.5365334 94 55 41
-0.04360182 -1.16272 -2.5366607 99 62 50
-0.043363284 -1.0452118 -2.5380242 103 68 57
-0.043013677 -0.9251799 -2.5328984 118 84 77
-0.042767473 -0.8075239 -2.5338104 135 128 146
-0.039646614 -0.643338 -2.364209 131 89 56
-0.037471972 -0.5071988 -2.2489955 129 87 50
-0.03233435 -0.34965047 -1.9544054 101 59 28
-0.019650321 -0.15863588 -1.2000868 191 139 71
-0.021545565 -0.11322494 -1.3228911 204 157 82
-0.022706231 -0.054648742 -1.4022973 148 111 68
-0.025950115 0.012302342 -1.6110175 83 57 19
-0.02753957 0.093341134 -1.719871 222 183 99
-0.028589787 0.18130744 -1.7964934 214 173 92
-0.031238036 0.29137287 -1.9744519 96 76 44
-0.036916804 0.45567873 -2.3462684 173 145 90
-0.03678844 0.5669798 -2.353563 166 139 87
-0.039089277 0.7237208 -2.5165176 140 188 235
-0.0395613 0.8570475 -2.563758 164 144 114
-0.039290644 0.97670275 -2.5634382 158 135 97
-0.03898209 1.0952953 -2.5606418 156 136 105
-0.038691785 1.2142065 -2.5590117 155 132 93
-0.038363233 1.3316613 -2.5548294 145 138 128
-0.03801562 1.4479996 -2.5493224 148 123 86
-0.03761251 1.5615134 -2.540015 133 114 79
0.07367295 -1.4536856 -2.5298715 89 46 30
0.074302055 -1.3424711 -2.5420604 91 51 35
0.074682824 -1.225963 -2.5456665 93 57 40
0.07477357 -1.1047817 -2.539364 99 60 44
0.07440052 -0.9780613 -2.5173655 105 70 59
0.07328137 -0.8447866 -2.4702969 117 82 71
0.07154184 -0.7097924 -2.402669 124 84 54
0.06958073 -0.57934034 -2.3280933 131 89 50
0.062460594 -0.42099372 -2.0815034 104 63 34
0.049873114 -0.25748134 -1.6544907 157 110 60
0.040525272 -0.14582281 -1.3381271 193 141 70
0.04283061 -0.08792357 -1.4095979 137 98 54
0.04386313 -0.022667525 -1.4385937 121 98 65
0.05147719 0.051915362 -1.6835897 128 97 48
0.05422576 0.13692726 -1.7675766 218 174 93
0.058349926 0.23527467 -1.8958364 215 178 116
0.061433535 0.3396854 -1.9893683 100 82 51
0.07325848 0.51418823 -2.365359 174 146 91
0.07374433 0.6265504 -2.3727427 166 139 85
0.07972227 0.79446095 -2.55671 174 158 133
0.08004019 0.9143148 -2.5579898 152 163 181
0.08018943 1.0321343 -2.5538716 162 139 105
0.080404595 1.1505527 -2.551878 159 136 100
0.08061494 1.2687407 -2.5497434 155 137 104
0.08080313 1.3863816 -2.5469215 157 132 93
0.081051156 1.5049084 -2.5460017 124 117 107
0.19233574 -1.4003981 -2.540229 90 47 30
0.19357847 -1.2886533 -2.5528362 92 53 35
0.19425705 -1.1722833 -2.557967 97 57 41
0.19309863 -1.0454428 -2.5388975 100 61 47
0.19049254 -0.9134187 -2.5008543 103 71 65
0.18587172 -0.77651364 -2.436478 117 93 99
0.18168455 -0.64717466 -2.3779762 125 84 49
0.17522004 -0.5165691 -2.289844 128 83 47
0.15489101 -0.36173338 -2.0207996 96 54 25
0.051700786 -0.08868365 -0.67137533 121 77 42
0.10509834 -0.117144786 -1.3660841 105 70 43
0.10877188 -0.05528382 -1.4118558 94 65 37
0.1170839 0.0112887025 -1.5177468 54 40 21
0.11537772 0.08074032 -1.4933782 30 20 2
0.12104959 0.15753776 -1.5646416 103 82 56
0.1543651 0.29353496 -1.99321 82 65 38
0.18209568 0.45531332 -2.3483956 180 150 95
0.18477394 0.57236105 -2.379487 172 144 89
0.19262668 0.7114302 -2.477115 126 128 132
0.19806589 0.84918654 -2.5434241 150 153 146
0.19959964 0.97401434 -2.5593984 62 60 40
0.20100163 1.0996186 -2.5736363 166 185 206
0.20096764 1.2178504 -2.5694497 163 138 101
0.20108555 1.3367335 -2.5672157 156 135 108
0.20102066 1.4541146 -2.5626545 161 138 105
0.20078123 1.5697373 -2.5558813 120 107 92
0.30950478 -1.4553381 -2.533422 89 45 24
0.3114243 -1.344594 -2.5466769 93 50 29
0.31366014 -1.2338253 -2.5624926 96 54 36
0.31394628 -1.1146169 -2.5623505 94 52 35
0.3069549 -0.9723179 -2.502818 84 40 24
0.30233186 -0.8421745 -2.4627092 104 67 53
0.29518715 -0.70968974 -2.402138 124 80 46
0.2878679 -0.58249176 -2.340263 134 88 47
0.27278098 -0.44826666 -2.2153606 141 96 56
0.08995944 -0.113263056 -0.72844374 116 72 40
0.10860407 -0.0957961 -0.87901884 106 64 34
0.17284557 -0.08749084 -1.3989062 73 42 19
0.17469233 -0.022530425 -1.4125167 135 114 72
0.18831739 0.04660551 -1.5213909 33 23 6
0.18475787 0.1151964 -1.4911608 127 107 75
0.19365552 0.19342262 -1.5615773 132 106 73
0.29432967 0.4042189 -2.3722248 184 155 96
0.29646206 0.5180928 -2.3871388 182 152 95
0.2979084 0.6319192 -2.3964999 176 147 92
0.31069976 0.7749397 -2.4971015 176 148 102
0.30660316 0.8788823 -2.4617944 124 123 95
0.32143462 1.0408944 -2.5785193 168 150 117
0.3225504 1.1642075 -2.5850086 166 140 98
0.32250983 1.283543 -2.5822196 163 170 174
0.32236302 1.4021848 -2.5785844 164 139 99
0.32241622 1.521461 -2.576555 153 129 95
0.42931828 -1.4025193 -2.544715 92 46 26
0.43237317 -1.2924747 -2.560959 98 51 34
0.43459806 -1.1786306 -2.5722632 98 55 40
0.43294767 -1.0542579 -2.5606155 95 56 44
0.42752212 -0.9227921 -2.5266583 100 64 57
0.41660866 -0.7841337 -2.4603186 112 87 91
0.39355862 -0.6321308 -2.3224053 124 81 47
0.04266485 -0.056169078 -0.2500821 121 67 10
0.03316591 -0.03443997 -0.193887 55 15 2
0.034194987 -0.026182996 -0.19980916 198 139 2
0.21932006 -0.11077446 -1.2897027 121 83 50
0.23555899 -0.05445258 -1.3843108 102 72 41
0.24559517 0.010439507 -1.4423118 91 72 44
0.24432895 0.077188894 -1.4338231 100 82 53
0.25493717 0.15014444 -1.4950619 91 72 45
0.3490567 0.3007025 -2.0461507 187 158 110
0.4079417 0.46255678 -2.3898776 188 157 98
0.40899447 0.5750607 -2.3943105 184 152 96
0.42222124 0.7084261 -2.4700027 110 109 98
0.44242975 0.86245066 -2.5864265 149 163 183
0.44354004 0.9848874 -2.5910425 169 148 112
0.44444758 1.1072731 -2.5944664 165 167 172
0.4442683 1.2270007 -2.591542 170 146 110
0.4442062 1.3468388 -2.5893044 168 142 103
0.44385237 1.4655327 -2.5853696 167 171 179
0.44352815 1.5839944 -2.581612 100 124 154
0.54665494 -1.4595402 -2.5414124 94 44 26
0.55056506 -1.3502948 -2.558072 96 49 32
0.5532061 -1.2366271 -2.568815 98 54 35
0.55527455 -1.120773 -2.576886 96 57 43
0.5548002 -0.99955386 -2.5731473 103 66 55
0.54473585 -0.86344373 -2.5249364 104 63 51
0.039247923 -0.053084526 -0.18050177 124 68 4
0.041514955 -0.04726057 -0.19089536 99 41 1
0.047435787 -0.04389184 -0.2181917 67 12 0
0.04057364 -0.028747505 -0.18631239 7 2 1
0.037367597 -0.018423218 -0.17137663 182 123 0
0.04080459 -0.011421552 -0.18715748 154 116 30
0.30126333 -0.02244047 -1.389963 94 73 44
0.30064052 0.042185925 -1.3862617 98 79 51
0.30206978 0.10720829 -1.3920306 101 82 56
0.33745354 0.19208151 -1.5543303 53 39 22
0.52062786 0.4077429 -2.3973806 193 162 100
0.5220116 0.5205567 -2.402329 190 158 100
0.52438813 0.63505685 -2.4118397 185 155 98
0.5543082 0.78970087 -2.5480201 170 150 128
0.5652881 0.9259884 -2.5969787 174 148 108
0.5659866 1.0478119 -2.598648 176 161 142
0.5666856 1.1698173 -2.600317 172 146 103
0.5663205 1.2895807 -2.5971012 163 166 173
0.5660679 1.4093527 -2.594405 169 145 108
0.56694025 1.531941 -2.596867 159 134 95
0.6696914 -1.4106561 -2.5601182 95 46 29
0.6732988 -1.298071 -2.5726016 92 50 33
0.6760975 -1.1828787 -2.5819821 96 54 39
0.67831653 -1.0658729 -2.5891385 99 58 43
0.6767042 -0.9428316 -2.5816643 102 61 49
0.22236054 -0.2698049 -0.84705555 87 34 9
0.048366904 -0.049613148 -0.18318737 105 48 0
0.1048111 -0.089639924 -0.3982054 71 17 0
0.054441027 -0.036655698 -0.20613731 4 0 0
0.047409542 -0.023478515 -0.17926209 23 13 5
0.046907805 -0.014946955 -0.17726138 212 148 0
0.051061966 -0.0073044095 -0.19297044 30 17 9
0.3638426 0.00972405 -1.3818632 83 64 41
0.36231747 0.0737253 -1.3753656 97 78 53
0.3890174 0.1478404 -1.476059 112 90 59
0.6337093 0.35249686 -2.4040518 197 164 102
0.63484263 0.46509683 -2.407129 194 160 101
0.6366296 0.57860106 -2.4126818 188 157 98
0.6510298 0.70632756 -2.4660301 52 56 10
0.68608 0.8650673 -2.5975423 142 142 133
0.68861616 0.98933566 -2.6058257 176 150 106
0.68883216 1.1106585 -2.6053205 175 150 120
0.6890713 1.2320026 -2.604903 170 154 134
0.6888284 1.3523877 -2.602663 173 146 104
0.6884275 1.4722538 -2.5998287 197 210 235
0.6878237 1.5914139 -2.5962307 115 109 104
0.7882933 -1.4698997 -2.5601292 92 44 25
0.792734 -1.3580683 -2.5733988 94 52 43
0.79655766 -1.2440093 -2.5846534 96 62 63
0.7985388 -1.126274 -2.5899193 93 68 78
0.79912686 -1.006266 -2.5906618 85 46 40
0.78214663 -0.8666812 -2.5344505 93 57 54
0.059821498 -0.056703206 -0.1927299 115 57 2
0.2032269 -0.16341856 -0.6571171 80 25 0
0.1956033 -0.12779431 -0.6321409 64 14 1
0.07921691 -0.039530296 -0.2552329 8 3 4
0.0552818 -0.019140499 -0.17769936 130 81 -2
0.05825057 -0.011457032 -0.18721767 128 92 22
0.74924153 -0.039836526 -2.4201558 181 149 89
0.75586593 0.07340523 -2.4404676 191 158 96
0.7511521 0.18576218 -2.424153 197 164 102
0.74839044 0.29740158 -2.4141529 198 164 105
0.74925053 0.41011727 -2.415845 195 162 100
0.7507789 0.5234804 -2.4196901 193 159 100
0.75392073 0.63859177 -2.4287312 38 43 7
0.7715767 0.7690307 -2.4845216 122 192 252
0.79733163 0.9139586 -2.5663407 36 42 23
0.80757093 1.046408 -2.5981474 162 198 243
0.80746657 1.1668898 -2.596648 172 201 239
0.80806017 1.2883717 -2.5973945 182 188 207
0.80835694 1.4094315 -2.5971856 175 163 156
0.80927175 1.5316682 -2.5989628 171 144 106
0.90598387 -1.4084599 -2.5567734 94 42 15
0.9080482 -1.2922214 -2.5615628 92 42 14
0.91109604 -1.1767818 -2.5691228 92 43 17
0.9142605 -1.060747 -2.5770051 94 46 17
0.9129737 -0.93936867 -2.5723345 98 48 18
0.87483335 -0.7852929 -2.463832 114 56 11
0.060698938 -0.046008773 -0.1699295 111 53 2
0.32255957 -0.20462659 -0.9070588 71 16 0
0.20765057 -0.10436158 -0.5833271 9 3 1
0.07630597 -0.028070033 -0.21362466 33 19 0
0.0632971 -0.014948239 -0.17695953 229 173 0
0.8966107 -0.10031997 -2.5190644 183 145 91
0.87631804 0.01648747 -2.4610326 185 154 94
0.8680629 0.12971723 -2.436854 191 160 100
0.8646747 0.24208458 -2.426357 193 160 98
0.8643908 0.35477373 -2.4245796 194 161 100
0.8653439 0.46799117 -2.4262733 191 157 99
0.86906105 0.58324474 -2.4357154 189 156 100
0.8838513 0.70827115 -2.4761846 154 104 25
0.91592324 0.85317594 -2.5650375 27 26 4
0.92732805 0.9844226 -2.5959404 162 134 82
0.92670166 1.1042311 -2.593139 161 134 85
0.9269742 1.2249938 -2.5928547 163 136 88
0.9272443 1.3457528 -2.5925636 163 134 87
0.9268234 1.4654186 -2.5903406 161 134 86
0.9277918 1.5872812 -2.5920022 161 132 85
1.014985 -1.4542788 -2.533598 88 35 8
1.0178505 -1.3400275 -2.539811 86 35 10
1.0202042 -1.2245569 -2.5447419 88 38 10
1.0220429 -1.1080428 -2.5483847 93 45 17
1.0238893 -0.99117094 -2.5520437 96 48 17
1.0187356 -0.8679646 -2.5382524 100 48 17
1.0031523 -0.73833394 -2.4984837 104 51 16
0.9755154 -0.6048981 -2.4287243 126 78 39
0.94118965 -0.47455186 -2.3423622 140 93 52
0.9302919 -0.36132762 -2.3143718 150 106 60
0.99361616 -0.2709571 -2.4710586 163 121 70
1.0168301 -0.15967406 -2.5278754 171 132 80
1.0088167 -0.041776396 -2.5070176 170 138 84
0.99120295 0.07349921 -2.4623172 177 147 91
0.98287916 0.18640316 -2.4407275 184 153 95
0.9801911 0.2990426 -2.4331486 187 156 96
0.9812352 0.4125708 -2.43484 185 154 95
0.98386353 0.5271291 -2.4404612 183 151 94
0.99121094 0.6453056 -2.4577837 182 149 97
1.0345714 0.79270214 -2.5643923 134 111 70
1.0429115 0.9191671 -2.5841157 164 135 86
1.0449564 1.041219 -2.5882275 164 137 89
1.0468084 1.1634642 -2.5918567 161 133 87
1.0470512 1.2840996 -2.5915003 161 132 85
1.0465624 1.4037471 -2.5893328 161 132 85
1.0445219 1.5209597 -2.583327 161 132 85
