ply
format ascii 1.0
element vertex 494
property float x
property float y
property float z
property uchar red
property uchar green
property uchar blue
element face 0
property list uchar int vertex_indices
end_header
-12.243609 8.650675 -21.196129 155 166 179
-11.257369 8.654108 -21.20469 150 161 175
-10.269674 8.656987 -21.211897 153 164 176
-9.274241 8.653276 -21.202955 160 169 183
-8.277659 8.6474905 -21.188929 154 162 176
-7.2950344 8.656712 -21.211676 164 175 188
-6.3014503 8.653803 -21.204699 175 185 199
-5.307869 8.649835 -21.195127 177 188 201
-4.3158703 8.647247 -21.188934 177 188 201
-3.3254237 8.647186 -21.188936 174 185 199
-2.3344057 8.645009 -21.183754 175 183 197
-1.3435293 8.64063 -21.173174 159 170 183
-0.35381854 8.640569 -21.173174 158 169 182
0.6358914 8.640508 -21.173176 156 167 180
1.6256024 8.640447 -21.173178 153 163 176
2.614094 8.636364 -21.163322 145 155 169
3.6008804 8.630399 -21.148855 143 151 165
4.5825973 8.617448 -21.11727 132 140 154
5.5676417 8.614211 -21.109486 127 136 150
6.5447826 8.601542 -21.07859 125 134 148
7.520746 8.590832 -21.052494 131 139 153
8.492794 8.578628 -21.022736 130 139 153
9.469978 8.573594 -21.01055 133 142 156
10.430698 8.555989 -20.96756 134 143 157
11.376846 8.530474 -20.905176 141 150 164
12.3127575 8.501916 -20.83534 144 153 167
-11.747527 7.6595955 -21.173677 151 163 174
-10.761839 7.663119 -21.183584 158 169 181
-9.770655 7.663058 -21.183586 160 169 183
-8.778813 7.662423 -21.182001 149 158 172
-7.788287 7.6629357 -21.183588 145 154 166
-6.798956 7.6649632 -21.189365 147 158 171
-5.8034687 7.6595807 -21.174654 150 161 172
-4.8111553 7.6570544 -21.167843 169 180 193
-3.8207076 7.6569934 -21.167845 165 176 189
-2.8281548 7.651236 -21.152096 148 157 171
-1.8384448 7.651175 -21.152098 172 181 193
-0.84894294 7.652989 -21.157284 161 170 183
0.14097595 7.651053 -21.1521 161 170 184
1.1303198 7.6485147 -21.145252 154 165 179
2.1203964 7.650931 -21.152103 151 162 176
3.1079078 7.6454616 -21.137154 139 148 161
4.0955334 7.6428165 -21.130007 131 140 154
5.0720587 7.6244903 -21.079512 156 164 178
6.0566034 7.622204 -21.073359 151 160 174
7.0340557 7.6128635 -21.047705 156 165 179
8.012879 7.607107 -21.031956 153 162 176
8.995405 7.6057243 -21.028305 158 167 181
9.963334 7.5934787 -20.994614 159 168 180
10.929251 7.5820255 -20.963116 151 160 172
11.881186 7.563546 -20.912191 155 164 177
12.89458 7.584018 -20.968964 155 164 178
-12.248676 6.6722503 -21.162476 139 148 161
-11.257491 6.672189 -21.162477 146 155 165
-10.266308 6.672128 -21.162477 147 157 167
-9.275124 6.6720676 -21.16248 143 152 164
-8.28394 6.6720066 -21.162481 138 146 160
-7.2927074 6.6719017 -21.162342 139 148 160
-6.3015723 6.6718845 -21.162483 140 149 161
-5.3103886 6.6718235 -21.162485 148 157 169
-4.319204 6.6717625 -21.162487 167 176 188
-3.3260334 6.667719 -21.149855 167 178 190
-2.3346086 6.665281 -21.142319 165 175 186
-1.3446516 6.6666193 -21.146757 171 182 193
-0.35420388 6.6665583 -21.146757 158 168 182
0.63624305 6.666497 -21.146759 153 162 176
1.6266907 6.666436 -21.14676 152 161 175
2.6137974 6.65787 -21.11978 165 174 188
3.602216 6.6563945 -21.115295 163 173 187
4.585314 6.6478167 -21.08828 159 168 182
5.567688 6.641392 -21.068094 158 167 181
6.544661 6.631412 -21.036629 154 162 176
7.53558 6.636311 -21.052362 151 160 174
8.5216055 6.6362505 -21.052364 146 155 169
9.490465 6.624207 -21.014353 147 156 170
10.45164 6.6095576 -20.968073 157 168 181
11.428205 6.60631 -20.957964 159 168 182
12.3723955 6.5863338 -20.894783 162 173 186
-11.753145 5.6812596 -21.141369 150 159 171
-10.769963 5.6854234 -21.15709 144 153 164
-9.776618 5.6845336 -21.154009 145 156 167
-8.786121 5.685301 -21.157091 152 161 173
-7.7899284 5.6821237 -21.145498 145 154 166
-6.8022785 5.6851788 -21.157095 152 162 173
-5.8103576 5.6851177 -21.157097 147 159 170
-4.821504 5.688676 -21.170565 144 153 165
-3.8270926 5.685853 -21.160292 160 171 185
-2.8324885 5.680711 -21.141382 158 169 182
-1.8413047 5.6806498 -21.141382 157 168 181
-0.8501208 5.6805887 -21.141384 165 175 188
0.14106391 5.6805277 -21.141386 163 174 188
1.1314058 5.6762433 -21.125668 168 177 191
2.1218536 5.6761823 -21.12567 158 167 181
3.1095135 5.67104 -21.10676 164 173 187
4.0958986 5.6665854 -21.090408 160 170 184
5.078035 5.6591063 -21.0628 151 160 174
6.0610094 5.654823 -21.047083 154 163 177
7.0425086 5.650539 -21.031366 155 164 178
8.034533 5.654701 -21.047085 152 163 176
9.015072 5.650739 -21.032566 161 169 184
9.978856 5.6380796 -20.985674 166 177 191
10.945553 5.6291814 -20.952778 177 186 198
11.908856 5.6201353 -20.919336 174 183 195
12.910235 5.6290603 -20.952782 170 179 191
-12.249287 4.690519 -21.121103 164 173 185
-11.268726 4.6949005 -21.141111 163 172 184
-10.283873 4.6981783 -21.156147 165 176 187
-9.289038 4.6971226 -21.15167 158 169 180
-8.30254 4.7005486 -21.167376 153 164 175
-7.3091445 4.7004876 -21.167377 156 168 178
-6.3157496 4.700426 -21.167377 144 155 166
-5.3178515 4.6963882 -21.14947 157 168 181
-4.325456 4.6964993 -21.150248 161 171 185
-3.3305268 4.6931434 -21.135408 163 175 192
-2.336958 4.689721 -21.120275 160 170 186
-1.3448907 4.6865826 -21.106415 155 165 181
-0.35432574 4.686113 -21.104576 154 164 179
0.6365585 4.6892734 -21.119087 154 164 177
1.6277792 4.689477 -21.120281 158 168 182
2.6150677 4.682443 -21.088877 153 163 176
3.5994103 4.675409 -21.057472 145 154 168
4.5842214 4.671859 -21.041758 143 152 166
5.5629215 4.66442 -21.008526 190 198 208
6.5530643 4.667352 -21.02201 195 202 214
7.5467224 4.6716795 -21.041775 170 179 191
8.528101 4.668268 -21.026684 157 166 178
9.507996 4.664823 -21.011444 148 157 169
10.473469 4.655605 -20.970196 150 159 173
11.419504 4.6400614 -20.900455 171 180 192
12.394323 4.637738 -20.890265 170 181 194
-11.774522 3.7060318 -21.137312 208 214 220
-10.786087 3.7075324 -21.146217 187 196 208
-9.792919 3.7075567 -21.14671 186 199 212
-8.799298 3.7074099 -21.146221 171 182 193
-7.8059034 3.7073488 -21.146223 163 174 185
-6.812666 3.7073736 -21.146713 152 163 174
-5.8152175 3.7047446 -21.13207 181 192 206
-4.822139 3.704415 -21.130539 164 177 190
-3.826637 3.7016037 -21.114853 197 207 216
-2.8339334 3.7005205 -21.109022 195 205 213
-1.8414266 3.6987321 -21.099169 233 237 243
-0.85024273 3.698671 -21.09917 195 205 212
0.14083718 3.69586 -21.083485 202 209 218
1.1315356 3.6966212 -21.088175 212 218 225
2.120153 3.692988 -21.0678 242 248 253
3.105231 3.6874273 -21.036427 235 241 248
4.0873585 3.6818624 -21.00503 220 225 235
5.0665455 3.676307 -20.973682 224 228 234
6.051818 3.6762366 -20.973625 255 254 255
7.0465813 3.6811264 -21.001871 255 254 255
8.058547 3.6926835 -21.068157 254 255 255
9.027912 3.6843128 -21.020748 221 226 233
9.985515 3.6732547 -20.958 254 255 255
10.928892 3.6594076 -20.879343 250 254 258
11.877126 3.6493237 -20.822151 221 227 234
12.861083 3.6509066 -20.831528 231 237 242
-12.271794 2.7134707 -21.11741 197 207 215
-11.279739 2.713646 -21.119247 212 218 225
-10.289451 2.7143319 -21.125065 219 225 230
-9.316668 2.7202892 -21.171906 223 230 235
-8.314643 2.7181263 -21.155554 199 210 221
-7.3092666 2.7141483 -21.125069 174 187 199
-6.3208 2.716205 -21.141552 165 175 188
-5.32621 2.7159293 -21.139887 161 172 183
-4.3258705 2.7119513 -21.109402 198 206 214
-3.3283057 2.7078977 -21.078323 217 222 230
-2.3328617 2.7029152 -21.040018 220 227 234
-1.3478426 2.7116582 -21.10855 210 218 226
-0.3546969 2.7075708 -21.077208 200 207 215
0.6359734 2.7054965 -21.061537 166 175 187
1.624867 2.7029169 -21.041931 174 183 195
2.6054235 2.6936266 -20.970081 203 213 220
3.5860152 2.68943 -20.937883 204 212 222
4.5637374 2.6853278 -20.90642 196 206 216
5.5544524 2.6889474 -20.935072 196 204 213
6.5248394 2.6830997 -20.890017 193 203 213
7.522688 2.6885824 -20.933176 187 199 210
8.518735 2.6922116 -20.961908 226 232 237
9.437499 2.673185 -20.814234 231 236 238
10.411711 2.6719537 -20.805115 232 238 243
11.321455 2.6558003 -20.679806 241 244 246
12.136832 2.621808 -20.415583 157 156 156
-9.515599 1.3904341 -17.0478 138 140 130
-8.770047 1.3994669 -17.159159 104 94 93
-8.094083 1.4225718 -17.443073 83 67 65
-8.694494 1.7005486 -20.852266 165 169 171
-7.7794695 1.7151546 -21.032118 155 166 179
-6.7860727 1.7142397 -21.021646 117 120 121
-5.7865214 1.7112128 -20.985275 202 210 215
-4.833091 1.7234114 -21.135626 181 189 203
-3.820967 1.7156113 -21.040712 171 181 197
-2.3963323 1.4523791 -17.812998 58 62 68
-1.5587901 1.453207 -17.823788 59 62 70
-0.7212985 1.4561881 -17.860987 54 58 66
0.11944671 1.4561362 -17.860987 55 60 67
0.9563648 1.450282 -17.789812 64 67 75
1.7936666 1.4501551 -17.788889 49 53 59
3.0693011 1.6916674 -20.752232 160 171 185
4.057279 1.6962637 -20.809357 169 180 193
5.0298405 1.6938571 -20.780573 175 186 197
4.650874 1.311188 -16.086487 75 78 87
5.4784136 1.3281907 -16.295666 145 153 156
6.128531 1.3032744 -15.990537 94 102 106
6.5999603 1.2499585 -15.336923 117 126 135
7.7563004 1.3240712 -16.246862 119 128 136
8.813014 1.3693882 -16.803514 70 72 77
10.52656 1.5008812 -18.417698 154 158 162
11.160806 1.4701744 -18.041533 156 160 164
-9.781337 0.58013386 -16.797934 162 166 160
-9.011877 0.58150727 -16.839115 73 79 81
-8.280451 0.5858458 -16.966177 152 157 151
-7.2448425 0.5673025 -16.430544 25 22 23
-5.9498787 0.5216006 -15.108169 74 57 59
-4.825173 0.48045102 -13.9174385 70 54 57
-2.4606996 0.28352913 -8.213806 140 145 148
-1.7262231 0.23600294 -6.8375525 122 122 117
-4.321048 0.72625446 -21.043045 149 153 164
-3.320198 0.7241592 -20.9841 141 148 167
-1.9829458 0.61585975 -17.847387 140 156 166
-1.1419793 0.6157977 -17.847092 109 116 118
-0.30154234 0.61676264 -17.876562 67 69 69
0.5407797 0.6167108 -17.876564 131 140 147
1.3818403 0.6160963 -17.860252 121 133 141
2.3987765 0.66463864 -19.269087 147 149 157
3.368755 0.6770519 -19.630623 175 177 179
4.515154 0.7119078 -20.642982 170 180 190
4.348773 0.5640967 -16.358324 131 142 153
5.097857 0.5616583 -16.288984 130 141 152
4.7815948 0.45783895 -13.279177 52 51 43
5.036911 0.4264426 -12.369597 54 53 42
6.5153313 0.49436015 -14.340851 129 143 153
6.286899 0.43216622 -12.537729 104 107 101
6.5208025 0.40970805 -11.887189 32 28 19
7.9157434 0.4579736 -13.288677 120 124 126
-9.357077 -0.2105673 -16.730017 170 174 166
-7.1667695 -0.17617153 -13.993974 78 81 79
-1.936821 -0.052452084 -4.1655073 11 15 19
-1.746138 -0.052638665 -4.1793613 5 5 10
-1.5851294 -0.05387837 -4.2768044 29 18 25
-1.3955523 -0.054363843 -4.314347 12 16 22
-1.2168612 -0.05550763 -4.4041038 10 11 19
-1.0432839 -0.057399124 -4.553131 198 205 208
-2.8793075 -0.19951934 -15.823036 76 73 67
-2.4126058 -0.22572584 -17.897243 25 25 27
-1.5631009 -0.22500604 -17.83607 40 42 43
-0.72032833 -0.2245857 -17.79865 132 139 140
0.11846826 -0.22332273 -17.694489 116 123 126
0.9497854 -0.22260928 -17.633905 102 109 112
1.7785776 -0.2222941 -17.60489 117 125 127
2.4023387 -0.20473848 -16.210821 66 46 44
3.1414824 -0.20313933 -16.080507 65 40 34
3.9739013 -0.20703955 -16.385485 152 162 170
4.7452703 -0.20702296 -16.380407 143 154 165
4.3178687 -0.16203776 -12.818071 27 28 19
4.763983 -0.15685743 -12.405432 41 40 29
5.3346334 -0.15646915 -12.371883 38 37 28
5.9025574 -0.1560923 -12.339253 71 71 65
6.197997 -0.14922878 -11.793978 41 39 32
6.778297 -0.14979391 -11.835927 32 30 22
7.528155 -0.15374126 -12.1450405 11 3 2
-9.656078 -0.9896572 -16.549377 85 92 94
-2.4341066 -0.27145052 -4.539066 131 137 146
-1.9481672 -0.23824508 -3.983627 106 113 126
-1.7859333 -0.24175557 -4.042128 99 107 117
-1.6181427 -0.24526139 -4.1005464 86 92 103
-1.4620051 -0.25172374 -4.208387 86 92 101
-1.2958808 -0.25822583 -4.3168807 80 85 97
-1.1088221 -0.26220074 -4.383118 91 96 108
-0.917478 -0.2667487 -4.4589286 212 216 222
-0.80816185 -0.3049504 -5.0972548 73 69 63
-0.8493398 -0.4564194 -7.6286945 122 121 96
-0.48714733 -0.45456165 -7.5972743 91 87 70
-0.13091056 -0.46328136 -7.7426343 96 87 75
0.23554265 -0.46507305 -7.7722015 199 208 211
0.61126685 -0.47186628 -7.885346 63 63 67
1.0184661 -0.48863557 -8.165181 83 86 92
1.4427139 -0.5021431 -8.390488 103 108 113
1.9030417 -0.51969516 -8.68335 106 110 116
3.0014021 -0.6743972 -11.267649 117 117 108
3.2481124 -0.61997837 -10.357932 92 84 54
4.398457 -0.7297228 -12.190833 40 36 30
4.9526496 -0.72662145 -12.138433 33 30 26
5.2578 -0.6914206 -11.549831 119 119 112
4.6474977 -0.55376047 -9.24984 194 206 210
5.4121704 -0.5895091 -9.846498 190 197 197
5.5082593 -0.55254304 -9.22861 188 198 205
-2.1385376 -0.40872815 -3.8158848 77 55 65
-1.9493146 -0.40688568 -3.798581 103 108 111
-1.7720617 -0.40741906 -3.8034575 123 130 134
-1.5976808 -0.4088054 -3.816296 133 137 145
-1.4428132 -0.41617036 -3.8849442 137 141 146
-1.2925106 -0.427189 -3.9876955 137 141 145
-1.1244078 -0.43507868 -4.0612335 56 8 19
-0.94757384 -0.44213817 -4.127018 83 18 31
-0.7963965 -0.46792617 -4.367611 81 82 83
-0.6850132 -0.54331523 -5.071153 33 34 39
-0.5322628 -0.6493714 -6.060888 156 153 149
-0.2461267 -0.6502022 -6.068478 130 132 128
0.04061476 -0.64923763 -6.0593114 75 72 70
0.32547712 -0.6462628 -6.031385 163 159 155
0.61327773 -0.64919233 -6.0585604 151 152 149
0.90059805 -0.649922 -6.0652056 139 140 140
1.1956692 -0.6545507 -6.1082354 110 111 112
1.4993533 -0.66118443 -6.1699743 104 104 107
1.817417 -0.6709726 -6.2611456 103 100 104
2.1426046 -0.6802871 -6.347891 132 133 134
2.4731538 -0.6888119 -6.4272637 145 150 152
2.8500376 -0.7069696 -6.596513 146 151 153
3.2476704 -0.72619057 -6.775675 133 138 140
3.6220617 -0.73723537 -6.8785405 132 136 140
4.0385785 -0.7543328 -7.037872 134 140 143
4.3923388 -0.7580022 -7.0719156 133 139 142
-2.220968 -0.5869759 -3.7987852 115 120 123
-2.0451493 -0.58810765 -3.8060377 119 130 128
-1.868808 -0.5892909 -3.8136237 102 107 109
-1.6978936 -0.5926189 -3.8350892 91 96 108
-1.5272385 -0.59684205 -3.8623462 64 63 70
-1.3530324 -0.6006339 -3.8868115 108 112 114
-1.1816912 -0.607087 -3.9284968 109 113 117
-1.0101173 -0.6158029 -3.9848232 103 108 112
-0.845888 -0.6340187 -4.10262 150 155 159
-0.71622944 -0.69670534 -4.5081687 89 90 91
-0.55960476 -0.77519417 -5.0159516 94 101 103
-0.38237438 -0.9196827 -5.9507637 134 143 145
-0.10079742 -0.9192076 -5.9475775 138 147 149
0.18037601 -0.91821414 -5.9410386 135 143 146
0.46298608 -0.9213103 -5.9609594 137 143 146
0.7496782 -0.92712456 -5.9984655 138 144 147
1.0417696 -0.93459874 -6.04671 120 127 128
1.3410375 -0.94391215 -6.1068516 121 126 129
1.6448585 -0.9525666 -6.162728 124 129 132
1.9675308 -0.96789443 -6.261775 132 138 142
2.2863877 -0.9775848 -6.324348 139 143 147
2.603002 -0.984189 -6.366953 134 139 142
2.9556553 -1.0016401 -6.4797273 132 139 141
3.289923 -1.0101706 -6.5347896 131 137 140
3.5933444 -1.0085812 -6.524385 134 140 143
3.9692316 -1.0259776 -6.636795 134 140 143
-2.0793345 -0.74802625 -3.70274 60 65 66
-1.9184896 -0.7537353 -3.7309453 56 60 62
-1.7476236 -0.7562639 -3.7434082 55 58 60
-1.5769374 -0.75944763 -3.7591133 65 68 70
-1.4070553 -0.7638756 -3.7809765 76 77 82
-1.240143 -0.7714391 -3.8183591 77 78 80
-1.0774734 -0.78467095 -3.8837965 105 113 114
-0.9114099 -0.8003655 -3.961421 143 151 155
-0.75684845 -0.8369091 -4.1422343 115 120 121
-0.64753556 -0.9665571 -4.783851 97 104 104
-0.5212069 -1.196665 -5.9226556 147 152 152
-0.24027781 -1.1944275 -5.911496 133 138 139
0.039507218 -1.1895596 -5.88732 127 134 134
0.3192156 -1.1929636 -5.9040823 137 144 145
0.60013115 -1.1956096 -5.917092 138 142 144
0.88314193 -1.1994282 -5.9359055 134 141 142
1.1741242 -1.2096233 -5.9862747 128 133 134
1.467842 -1.2181302 -6.0282884 127 132 134
1.7757558 -1.2337354 -6.1054277 131 136 138
2.103713 -1.2569517 -6.2202296 124 129 128
2.3869002 -1.2510054 -6.190714 138 143 144
2.6840925 -1.2529012 -6.200007 137 140 142
2.993216 -1.2594467 -6.232308 131 135 133
3.2733688 -1.2537252 -6.2039056 143 141 140
3.5902004 -1.2618399 -6.243971 158 152 147
3.9126527 -1.2705483 -6.2869725 153 147 142
-2.1803985 -0.92903036 -3.721843 118 123 123
-2.0070233 -0.9304579 -3.7275188 94 97 100
-1.8361257 -0.9334186 -3.739336 73 76 79
-1.6609303 -0.9345914 -3.7439907 63 66 66
-1.4841045 -0.93501496 -3.7456443 50 51 52
-1.3070909 -0.9354165 -3.7472093 50 53 58
-1.1373138 -0.9419343 -3.7732751 45 47 51
-0.97811645 -0.9612782 -3.8507197 63 64 65
-0.8117744 -0.98086184 -3.9291227 115 122 124
-0.68199915 -1.069442 -4.2839065 156 153 150
-0.5528686 -1.2345754 -4.9453297 40 43 45
-0.3582803 -1.3890537 -5.5640583 194 183 168
-0.0940358 -1.3819467 -5.5355253 183 176 164
0.1679988 -1.3789059 -5.5232816 180 167 145
0.4295232 -1.3779519 -5.5193954 186 177 165
0.6876478 -1.3709551 -5.4913063 170 155 138
0.9430419 -1.3638601 -5.462824 143 136 128
1.1908982 -1.3512765 -5.4123583 112 117 113
1.4301728 -1.3351475 -5.3476934 111 117 116
1.6679122 -1.3226624 -5.297625 115 122 122
1.9003984 -1.3098282 -5.24616 110 119 119
2.1214204 -1.2929806 -5.1786203 129 136 137
2.3725977 -1.296103 -5.191067 115 122 122
2.6106112 -1.2921268 -5.1750813 114 120 119
2.799463 -1.2665933 -5.072758 104 111 111
2.9661677 -1.2358735 -4.9496665 112 119 119
-2.0735404 -1.0955709 -3.6849365 31 31 34
-1.9016285 -1.0972817 -3.6906548 25 26 28
-1.7448884 -1.1089801 -3.729965 20 20 23
-1.5732425 -1.1127743 -3.7426896 18 16 20
-1.4012995 -1.1172942 -3.7578561 17 19 21
-1.2436155 -1.1361568 -3.8212597 45 51 49
-1.0684229 -1.1427286 -3.8433256 4 5 11
-0.89790803 -1.1580344 -3.8947656 10 14 20
-0.7284883 -1.1830473 -3.9788513 59 63 68
-0.6437412 -1.4111674 -4.7460237 52 55 57
-0.42366245 -1.4284781 -4.8041964 81 86 88
-0.19425517 -1.417994 -4.7688894 98 105 105
0.031819265 -1.4082934 -4.7362194 86 93 95
0.2548573 -1.3989462 -4.704737 93 100 101
0.47645676 -1.394131 -4.688498 95 102 103
0.69443566 -1.3851691 -4.658314 101 106 108
0.9063532 -1.3713694 -4.6118603 89 93 96
1.1101649 -1.353064 -4.5502553 88 92 94
1.3092327 -1.3358829 -4.492433 80 85 88
1.5093361 -1.3244256 -4.45386 84 88 92
1.6884083 -1.2995977 -4.3703246 89 94 95
1.8676842 -1.2803438 -4.305535 104 109 110
2.0772603 -1.2836126 -4.316485 103 107 109
2.2564921 -1.2692292 -4.268075 103 109 110
2.4065588 -1.2421627 -4.177017 117 122 122
2.6041422 -1.2418772 -4.1760163 111 117 118
-2.2766907 -1.3384073 -3.8783252 24 23 24
-2.2568033 -1.4435325 -4.1829123 4 6 11
-2.1527119 -1.5098944 -4.375172 61 64 64
-1.991889 -1.5463941 -4.4808984 30 29 32
-1.742172 -1.5143551 -4.388024 13 12 15
-1.4901185 -1.4712971 -4.2632227 7 5 9
-1.2626724 -1.4428085 -4.1806393 2 3 6
-1.0497255 -1.4233414 -4.124197 7 5 9
-0.8383327 -1.3975264 -4.049363 5 6 9
-0.66516715 -1.4390315 -4.1695895 41 41 45
-0.4730669 -1.4573914 -4.222752 81 86 87
-0.2704978 -1.4467705 -4.191943 92 97 98
-0.070889056 -1.436832 -4.1631117 86 91 92
0.12604144 -1.4275833 -4.1362796 83 88 89
0.3211018 -1.4213394 -4.1181536 82 89 90
0.5157531 -1.4187073 -4.110493 68 75 76
0.7055777 -1.407896 -4.079135 83 88 89
0.8908454 -1.3946148 -4.040621 85 88 90
1.0673999 -1.3748226 -3.9832437 86 91 92
1.2340766 -1.3501871 -3.911835 82 87 90
1.3878634 -1.3197452 -3.8236046 80 82 86
1.5314032 -1.2877338 -3.7308288 77 79 85
1.6991985 -1.2806456 -3.7102616 89 91 95
1.8794683 -1.28341 -3.718239 96 98 100
2.0169344 -1.2589828 -3.6474392 84 89 90
2.163522 -1.2436653 -3.6030324 91 94 98
-1.5545161 -1.083449 -2.7569547 36 39 39
-2.0703645 -1.5758799 -4.009969 16 17 22
-1.850615 -1.5515096 -3.9479275 23 25 27
-1.647119 -1.5367986 -3.910466 24 26 30
-1.4453385 -1.5201453 -3.8680615 9 10 12
-1.2514534 -1.5081469 -3.8375032 9 9 13
-1.0604552 -1.4961209 -3.8068752 12 17 22
-0.8736238 -1.4862286 -3.7816763 33 34 37
-0.6906433 -1.4794525 -3.7644067 60 63 65
-0.50922996 -1.4724579 -3.7465818 87 93 90
-0.33012733 -1.4682021 -3.7357254 85 90 92
-0.15195362 -1.4629486 -3.7223308 77 82 83
0.02488134 -1.4538908 -3.699257 80 84 86
0.1996591 -1.4458264 -3.6787105 73 76 78
0.37359038 -1.4420359 -3.6690392 71 76 77
0.5462701 -1.4373729 -3.6571484 68 71 73
0.7171615 -1.4313971 -3.6419168 66 71 72
0.885636 -1.4238645 -3.6227245 74 79 82
1.0418504 -1.4022866 -3.5677984 94 99 102
1.1782805 -1.3638542 -3.4699895 82 84 88
1.3140963 -1.3342415 -3.3946223 79 82 84
1.4682157 -1.3276603 -3.3778536 79 81 86
1.6291636 -1.3279448 -3.3785527 69 71 75
1.7731888 -1.3156247 -3.347183 67 69 71
1.9046308 -1.2967678 -3.2991834 77 80 84
2.0916924 -1.3157696 -3.347502 80 83 85
-1.1035683 -0.82730323 -1.8760982 24 21 17
-1.0974727 -0.89517224 -2.029993 161 164 165
-1.7168301 -1.53556 -3.4821856 81 83 83
-1.5386478 -1.5232519 -3.454252 71 74 74
-1.359865 -1.5073307 -3.418125 57 61 63
-1.1886084 -1.4965552 -3.3936677 50 54 55
-1.0224321 -1.4897894 -3.3783028 69 74 75
-0.85723495 -1.4821876 -3.3610432 59 64 65
-0.69677347 -1.4811608 -3.3586922 80 83 83
-0.5369615 -1.4813071 -3.3590024 61 65 65
-0.37658358 -1.4793468 -3.3545346 66 69 71
-0.21698457 -1.4797974 -3.3555346 61 64 66
-0.05717328 -1.477226 -3.3496814 60 63 65
0.10167339 -1.4687706 -3.3304865 70 75 75
0.25900716 -1.4620887 -3.3153136 58 63 64
0.41510674 -1.456145 -3.3018146 71 74 76
0.5712858 -1.4536728 -3.296187 49 52 54
0.7293943 -1.4561226 -3.30172 78 83 83
0.8865406 -1.4561261 -3.3017063 68 70 72
1.019534 -1.4224341 -3.2252896 73 75 80
1.162014 -1.4090661 -3.1949575 73 78 79
1.329722 -1.4258457 -3.232983 69 71 73
1.4631773 -1.4062272 -3.1884782 79 82 84
1.6448929 -1.432321 -3.2476223 64 67 68
1.7798662 -1.4167281 -3.212246 71 74 78
1.9163624 -1.40472 -3.1849983 70 73 75
