ply
format ascii 1.0
element vertex 494
property float x
property float y
property float z
property uchar red
property uchar green
property uchar blue
element face 0
property list uchar int vertex_indices
end_header
-0.7390158 0.5057203 -1.2921225 152 161 175
-0.67774314 0.50462896 -1.2893407 153 164 177
-0.61693865 0.50370824 -1.2869945 155 166 179
-0.5567736 0.50316733 -1.285618 159 168 182
-0.4979668 0.5038697 -1.2874149 165 174 188
-0.4381948 0.5036525 -1.2868645 167 178 191
-0.37834442 0.503261 -1.2858694 162 173 186
-0.32099712 0.5066694 -1.2945738 159 170 183
-0.26290253 0.51018846 -1.303561 159 170 183
-0.2043922 0.5147501 -1.3152095 155 166 179
-0.14467977 0.5188637 -1.3257141 152 161 175
-0.08367061 0.52095765 -1.3310635 150 159 173
-0.022177111 0.52326554 -1.336959 142 153 167
0.039944127 0.5266895 -1.3457037 139 148 162
0.102738924 0.52941805 -1.3526732 134 143 157
0.1663507 0.5327043 -1.3610663 127 135 149
0.2308745 0.53630877 -1.3702719 123 131 145
0.29470107 0.5370874 -1.3722639 128 137 151
0.35692573 0.5351856 -1.3674132 133 142 156
0.41989452 0.53480804 -1.3664538 132 141 155
0.4842889 0.53611124 -1.369785 132 141 155
0.5506961 0.5390868 -1.3773853 136 144 158
0.61781764 0.5420735 -1.3850139 144 153 167
0.6808543 0.54124874 -1.3829131 146 155 169
0.74377006 0.5404788 -1.3809519 146 155 167
0.8005583 0.53572696 -1.3688258 143 152 164
-0.74809355 0.47047427 -1.3609749 142 153 165
-0.68316764 0.46921572 -1.35734 143 153 164
-0.61706734 0.46681252 -1.3503972 143 152 164
-0.5560592 0.46815205 -1.3542707 145 154 168
-0.49332398 0.4681923 -1.3543893 152 161 175
-0.430978 0.4686655 -1.3557594 162 173 186
-0.36947492 0.47037068 -1.3606896 153 164 177
-0.30834085 0.47334048 -1.3692747 155 166 179
-0.2468447 0.4771451 -1.3802724 161 172 185
-0.18449742 0.48138434 -1.3925264 155 163 177
-0.12068019 0.48428154 -1.4009018 146 155 167
-0.05590114 0.4855659 -1.4046161 147 156 168
0.009228939 0.4873147 -1.4096727 145 153 167
0.075018704 0.49033093 -1.4183922 140 149 163
0.1410142 0.49124607 -1.4210393 147 157 171
0.20770147 0.49322855 -1.4267713 153 164 176
0.27469724 0.49481177 -1.4313492 152 160 174
0.34056425 0.49414003 -1.4294106 154 162 176
0.40513188 0.49210837 -1.4235414 153 162 174
0.47076026 0.49175757 -1.4225297 151 160 172
0.5363673 0.49147508 -1.4217159 151 159 173
0.60573786 0.49433067 -1.4299713 151 160 174
0.6722952 0.49455222 -1.4306141 153 162 176
0.7356143 0.4925644 -1.4248716 155 164 178
0.80062824 0.49194753 -1.4230913 155 162 175
0.8619207 0.48931074 -1.4154732 153 162 174
-0.8304602 0.43398857 -1.4473567 141 150 162
-0.76036656 0.4323469 -1.441887 140 149 161
-0.68831867 0.4291688 -1.4312981 141 152 163
-0.61876863 0.42703417 -1.424186 141 151 162
-0.5537241 0.4278688 -1.4269665 136 145 157
-0.48714906 0.42758527 -1.4260217 143 152 164
-0.42201474 0.42867368 -1.4296477 159 168 180
-0.3583024 0.43187863 -1.4403255 159 170 182
-0.2940253 0.43571314 -1.4531007 160 171 184
-0.22891594 0.44022447 -1.468131 160 171 184
-0.16203418 0.44370198 -1.4797167 156 165 179
-0.093685925 0.44532156 -1.4851124 149 158 171
-0.024777912 0.44586995 -1.4869392 146 157 171
0.04429271 0.446367 -1.488595 157 165 179
0.11361131 0.44724396 -1.4915166 159 168 182
0.18305014 0.44775543 -1.4932202 154 165 178
0.2529934 0.44888574 -1.496986 154 163 177
0.3228467 0.44940585 -1.4987186 148 157 171
0.390951 0.44773704 -1.4931583 145 154 168
0.45880643 0.4463307 -1.4884727 146 155 169
0.5250799 0.44395506 -1.4805576 145 154 168
0.59388995 0.44403 -1.480807 143 152 166
0.665941 0.4462653 -1.4882541 154 165 178
0.73261267 0.44481152 -1.4834102 162 171 185
0.7963813 0.44199556 -1.4740281 175 184 196
0.85967726 0.4393845 -1.4653286 191 202 209
-0.8440631 0.3885705 -1.5306432 169 178 190
-0.76724726 0.3857404 -1.5195023 156 168 179
-0.691203 0.38276243 -1.5077797 160 170 181
-0.6203121 0.38228697 -1.5059046 158 169 181
-0.55136096 0.38303652 -1.50885 166 177 188
-0.48151964 0.38329402 -1.5098592 151 160 172
-0.41263407 0.3845276 -1.5147091 160 171 184
-0.34486958 0.38752466 -1.5264984 157 166 180
-0.27656877 0.39131132 -1.5413946 159 170 183
-0.20672946 0.39480266 -1.5551286 161 172 186
-0.13506342 0.39667916 -1.5625082 159 168 182
-0.06254646 0.3975037 -1.5657485 158 167 181
0.010275322 0.39854676 -1.5698485 158 167 181
0.08323092 0.39840817 -1.5692989 160 169 183
0.15596335 0.3978343 -1.5670366 178 188 200
0.22935812 0.3987856 -1.5707755 184 194 206
0.30317867 0.39984253 -1.5749301 165 174 188
0.3764468 0.39990273 -1.5751626 153 162 176
0.449123 0.3994181 -1.5732514 157 164 177
0.52086544 0.398356 -1.5690678 168 176 189
0.58939666 0.39539945 -1.5574299 166 175 187
0.65924364 0.39387864 -1.5514416 173 182 194
0.73207057 0.39426616 -1.5529622 176 185 197
0.7991445 0.39176163 -1.5431031 171 180 190
0.8628284 0.388144 -1.5288641 162 170 178
0.9297584 0.38642892 -1.5221115 164 172 180
-0.9316049 0.3361912 -1.6184406 165 174 186
-0.8492303 0.3334496 -1.605247 163 172 184
-0.766546 0.33004415 -1.5888616 163 174 185
-0.69021446 0.32893804 -1.5835325 162 171 183
-0.61726975 0.32937315 -1.5856144 154 165 176
-0.54508525 0.33038548 -1.5904717 152 163 175
-0.47272387 0.33158967 -1.5962516 169 180 194
-0.39936668 0.33241165 -1.6001937 167 179 196
-0.32749963 0.33513138 -1.6132607 165 177 192
-0.25520685 0.33889878 -1.631365 158 169 184
-0.18039611 0.34109294 -1.6419047 154 164 179
-0.1042261 0.34204587 -1.6464759 154 165 178
-0.027611416 0.34274328 -1.6498185 156 167 182
0.049185418 0.34254768 -1.6488674 169 178 190
0.12563159 0.34164223 -1.644503 161 170 182
0.20198378 0.34127033 -1.6427042 163 172 184
0.27864152 0.34148207 -1.6437116 172 181 193
0.3555783 0.34187442 -1.6455876 190 199 211
0.43429583 0.34354112 -1.6535902 186 193 205
0.5122712 0.34420812 -1.6567866 178 187 199
0.5885428 0.34370574 -1.6543605 182 191 203
0.6597643 0.34070972 -1.6399449 157 165 178
0.7304068 0.3380686 -1.627236 159 166 179
0.802729 0.33663073 -1.6203123 178 187 199
0.8664599 0.33214346 -1.5987277 162 171 183
0.9314769 0.32882205 -1.5827487 165 174 186
-0.9285234 0.27096733 -1.6784413 196 202 213
-0.8500682 0.27092323 -1.6781474 176 188 199
-0.76711243 0.26928806 -1.6680118 163 173 184
-0.6907779 0.2698701 -1.6715914 168 177 189
-0.61357576 0.27021623 -1.6737113 169 182 195
-0.5357807 0.2703617 -1.6745908 184 197 210
-0.45744425 0.27023453 -1.6737834 174 187 200
-0.38020754 0.2708355 -1.6774796 211 221 229
-0.30355355 0.27226615 -1.6863083 233 239 246
-0.22653948 0.2742551 -1.6985898 223 231 237
-0.14819412 0.27589568 -1.7087164 217 225 233
-0.06875171 0.2769178 -1.7150171 201 210 220
0.011240585 0.27702132 -1.7156361 206 214 222
0.09100327 0.27625465 -1.7108728 222 227 236
0.17123193 0.27696922 -1.7152711 209 215 224
0.25219038 0.27803954 -1.72187 204 210 219
0.33179587 0.27746174 -1.7182747 226 232 239
0.41472456 0.27935484 -1.729962 255 254 255
0.49766967 0.28064257 -1.7379047 255 254 255
0.58059675 0.28156263 -1.7435734 233 237 244
0.6556363 0.27889782 -1.7270712 222 228 235
0.7314343 0.27710566 -1.715966 232 235 241
0.80510086 0.27493957 -1.7025486 229 234 237
0.87283677 0.2713175 -1.6801275 214 217 225
0.9388336 0.2677966 -1.6583326 213 220 224
1.0017185 0.2639915 -1.6347804 228 234 239
-0.9904235 0.19725105 -1.7151853 219 225 230
-0.90918636 0.19701941 -1.7131348 219 224 229
-0.8322214 0.19775765 -1.7195034 233 238 245
-0.75637066 0.19894537 -1.729773 221 228 236
-0.6790679 0.19998747 -1.7387785 209 218 228
-0.59726405 0.1998039 -1.7371447 182 195 208
-0.5158573 0.19971406 -1.7363248 166 175 187
-0.4339247 0.19934629 -1.7330924 200 210 218
-0.35336947 0.19958463 -1.7351211 212 219 228
-0.27368668 0.20059954 -1.7438892 186 194 200
-0.1930415 0.2014631 -1.7513434 180 183 193
-0.111525975 0.20200871 -1.756038 203 211 218
-0.02951172 0.20213334 -1.757079 187 197 206
0.05263609 0.20240803 -1.7594222 172 183 195
0.13461113 0.20209537 -1.7566682 190 200 208
0.21767014 0.2030403 -1.7648274 205 214 222
0.30080253 0.2035193 -1.7689428 196 205 215
0.38492164 0.20431997 -1.7758497 193 203 212
0.4709473 0.20567366 -1.7875551 194 203 213
0.55774987 0.20691055 -1.7982461 195 204 214
0.64403623 0.20765881 -1.8046968 210 218 225
0.7329836 0.20899571 -1.816255 224 230 234
0.8093252 0.20682944 -1.7974173 218 224 229
0.8825889 0.20435788 -1.7759322 216 223 228
0.9485711 0.20076837 -1.7447484 235 239 241
1.0017837 0.1952547 -1.696872 157 162 161
-0.9335943 0.11509563 -1.6823373 126 126 119
-0.8680449 0.11687992 -1.7082654 84 67 68
-0.79589146 0.11804353 -1.7251437 98 86 88
-0.7307104 0.12062104 -1.7626292 126 129 131
-0.6483079 0.12064269 -1.762859 151 156 166
-0.5666482 0.12082705 -1.7654601 141 143 148
-0.4853974 0.12117392 -1.7704295 184 193 205
-0.40454125 0.12177928 -1.7791653 188 197 211
-0.32055894 0.121508025 -1.7751262 178 192 200
-0.23832361 0.121936224 -1.781279 149 158 166
-0.1548868 0.121870615 -1.7802367 124 141 148
-0.0713471 0.12146105 -1.7741827 85 92 97
0.011587312 0.12065815 -1.7623988 86 92 101
0.0936746 0.120188795 -1.7554753 127 132 140
0.1767457 0.120841846 -1.7649037 138 145 155
0.2641666 0.123118274 -1.7979794 167 179 190
0.34781167 0.12295821 -1.7955604 170 181 194
0.43261436 0.12319422 -1.7989107 152 164 175
0.51682204 0.12321353 -1.7991047 142 159 171
0.5646001 0.11573866 -1.6901499 135 141 152
0.63712364 0.114565685 -1.6729851 113 119 126
0.7197329 0.11527103 -1.6831757 122 130 139
0.8073355 0.116561666 -1.7018887 139 146 155
0.9087571 0.11944327 -1.7437669 101 103 109
0.97530353 0.11763356 -1.7173312 139 143 146
1.047162 0.116693914 -1.7035666 137 142 147
-0.91951776 0.034399737 -1.5875078 149 152 148
-0.8454491 0.034420248 -1.5881555 148 152 146
-0.7726622 0.034501065 -1.591562 95 95 98
-0.70095444 0.03465143 -1.5981492 125 128 131
-0.6274258 0.03473465 -1.601663 62 51 55
-0.55072093 0.034637444 -1.5969244 71 60 62
-0.4704906 0.034249052 -1.5788736 129 133 137
-0.39482114 0.03410983 -1.5722203 118 120 119
-0.37105328 0.039453913 -1.8161855 152 156 169
-0.28431386 0.039236087 -1.8058993 122 133 141
-0.1990766 0.039123908 -1.8004436 107 117 122
-0.11450231 0.039062705 -1.7973181 110 120 126
-0.030042185 0.0387693 -1.7835891 82 86 90
0.053124063 0.0384726 -1.7697145 113 122 130
0.13573278 0.038388778 -1.7655643 115 125 132
0.22157851 0.03894842 -1.7907872 138 142 152
0.30580783 0.038996674 -1.7926621 137 145 152
0.38195062 0.038211808 -1.7565211 152 160 169
0.431214 0.035477396 -1.6314512 130 139 149
0.50699884 0.03543809 -1.6293602 120 130 139
0.59296817 0.036034927 -1.6562815 88 92 95
0.6688161 0.035946917 -1.6519662 66 66 63
0.7477889 0.03603041 -1.6554711 118 129 139
0.8453108 0.036916006 -1.6955345 107 110 108
0.93155456 0.037197087 -1.7080346 65 67 65
0.9970844 0.036667235 -1.6835811 111 119 123
-0.83114374 -0.0376563 -1.493177 148 150 145
-0.7303323 -0.03614179 -1.432976 12 13 14
-0.6551382 -0.035706807 -1.4158701 4 8 10
-0.5875775 -0.035634328 -1.4132392 1 0 3
-0.5204406 -0.03557372 -1.4110818 12 4 11
-0.45299035 -0.03547293 -1.4073178 41 45 51
-0.38885474 -0.035641056 -1.4143013 125 130 137
-0.3283254 -0.03627568 -1.4399375 185 192 199
-0.30291054 -0.04208167 -1.6723665 90 86 88
-0.24221489 -0.045383636 -1.8047376 95 100 101
-0.15854129 -0.04567128 -1.8165814 97 105 104
-0.07313136 -0.045572903 -1.8129855 80 83 84
0.011818867 -0.04500459 -1.7905834 94 90 93
0.095654756 -0.04490121 -1.786781 86 90 94
0.17932527 -0.04484619 -1.7849132 102 108 111
0.2662105 -0.04536681 -1.8060924 60 41 37
0.34625477 -0.044751883 -1.7818054 66 51 49
0.39822724 -0.041466553 -1.6505495 125 134 144
0.4719241 -0.041133273 -1.6375074 122 129 138
0.5524521 -0.041400462 -1.6485201 100 108 115
0.63354784 -0.041637253 -1.6583189 45 47 43
0.707644 -0.041413356 -1.6496553 68 70 68
0.8028161 -0.04233722 -1.6870035 62 62 60
0.8983542 -0.043111045 -1.7183495 61 63 60
0.95786 -0.04217873 -1.6812801 161 171 179
1.0247391 -0.04168566 -1.6618165 174 184 189
-0.84030676 -0.104501374 -1.4463149 136 140 139
-0.6961442 -0.094222106 -1.3038269 104 110 121
-0.63840795 -0.09474264 -1.3111453 95 102 113
-0.57771593 -0.09489173 -1.3133112 88 92 102
-0.5210795 -0.095820874 -1.3263011 80 85 96
-0.46101546 -0.09629053 -1.3329167 73 79 86
-0.39934725 -0.09652327 -1.3362457 119 121 131
-0.33634916 -0.096465066 -1.3355373 130 140 149
-0.279336 -0.098483935 -1.3636572 194 200 205
-0.25194693 -0.115196265 -1.5957325 122 124 126
-0.1907653 -0.124152124 -1.7201713 138 139 136
-0.11400617 -0.12875447 -1.7841911 90 89 77
-0.029816046 -0.1274179 -1.7657678 51 43 41
0.05181086 -0.12408616 -1.7196393 175 179 178
0.13428345 -0.12561084 -1.7409384 82 82 85
0.21222872 -0.123342246 -1.7095648 80 83 89
0.29060057 -0.122497275 -1.6979573 92 94 101
0.3669858 -0.12135755 -1.6822544 117 122 125
0.43949243 -0.11956595 -1.6574947 113 114 115
0.5130136 -0.11854643 -1.6434561 82 77 62
0.5969352 -0.11987757 -1.6620703 62 56 37
0.6722556 -0.1193738 -1.6551952 49 49 46
0.7510724 -0.11952862 -1.6574695 100 100 93
0.8368673 -0.120657325 -1.6732761 173 185 190
0.91300863 -0.12032072 -1.6687231 166 174 176
0.9688874 -0.11758189 -1.630786 181 195 201
-0.6974613 -0.14922588 -1.2492869 123 131 135
-0.6329488 -0.14789432 -1.2381865 119 124 128
-0.57250834 -0.14733928 -1.2335955 125 134 138
-0.5159782 -0.1477772 -1.2373298 111 117 124
-0.45790535 -0.14783113 -1.2378447 133 137 143
-0.4033836 -0.1492121 -1.2494878 117 122 126
-0.35044748 -0.15175033 -1.2708368 69 38 46
-0.29527593 -0.15417078 -1.2912002 80 44 51
-0.25584483 -0.16815849 -1.408579 80 82 84
-0.20276225 -0.1798506 -1.5067157 59 66 67
-0.1309962 -0.17872213 -1.4973267 103 99 91
-0.05976275 -0.17655738 -1.4792444 111 110 108
0.009722925 -0.17359976 -1.454509 99 102 102
0.07716105 -0.17127615 -1.43509 146 143 139
0.14398894 -0.1703994 -1.4278072 123 124 123
0.21107769 -0.17028853 -1.4269494 134 133 132
0.27850997 -0.17043845 -1.4282795 121 122 123
0.3462025 -0.17065586 -1.4301761 141 138 135
0.41739893 -0.17224544 -1.4435871 131 128 128
0.49222273 -0.174674 -1.4640396 126 127 126
0.56768817 -0.1767035 -1.4811453 124 125 124
0.6569112 -0.18209751 -1.5264893 120 125 126
0.7413754 -0.18523762 -1.5529208 113 118 119
0.8197832 -0.18643634 -1.5630608 113 118 120
0.8938308 -0.18652724 -1.5639031 159 167 173
0.970624 -0.18713215 -1.5690598 170 180 187
-0.7121026 -0.20380086 -1.2219911 72 79 79
-0.6497703 -0.2023338 -1.2132356 107 112 115
-0.59213924 -0.20218667 -1.2124016 94 98 102
-0.53638536 -0.20271717 -1.2156347 101 109 117
-0.48112264 -0.20358317 -1.2208818 111 119 125
-0.4257997 -0.20465682 -1.2273759 118 124 127
-0.37230518 -0.20708402 -1.2419956 94 98 102
-0.32002524 -0.21121757 -1.2668598 89 93 97
-0.2701676 -0.21920754 -1.3148775 124 127 130
-0.22594786 -0.23786785 -1.4269594 81 86 89
-0.16797125 -0.2517718 -1.5104942 109 116 116
-0.09642943 -0.25095826 -1.5056705 120 127 130
-0.025334127 -0.25004232 -1.5002316 121 127 128
0.04495844 -0.24753004 -1.4852072 121 128 130
0.114131816 -0.24566582 -1.4740729 117 124 126
0.18173304 -0.2431058 -1.4587593 118 124 127
0.24927992 -0.24189761 -1.4515628 122 128 131
0.31648505 -0.24094783 -1.4459175 115 119 121
0.3829903 -0.23989448 -1.4396497 121 125 129
0.4520789 -0.240531 -1.4435307 120 124 127
0.52152586 -0.24116479 -1.4473959 120 124 128
0.5930074 -0.2424819 -1.4553655 116 123 126
0.6656149 -0.24393669 -1.464163 114 120 123
0.7357604 -0.24429974 -1.4664028 117 121 125
0.8047363 -0.24424438 -1.4661295 119 124 125
0.88073456 -0.24615835 -1.4776869 115 120 121
-0.6537117 -0.25010055 -1.1673172 52 54 57
-0.60391927 -0.25232422 -1.1777432 73 77 81
-0.55149513 -0.2537908 -1.184634 60 64 68
-0.49971285 -0.25591743 -1.1946081 58 61 63
-0.44475797 -0.2567583 -1.1985773 68 70 74
-0.392738 -0.25978285 -1.2127469 71 73 76
-0.34442717 -0.26670635 -1.2451308 94 100 103
-0.29291368 -0.2734954 -1.2768888 125 129 135
-0.2447129 -0.28768504 -1.343222 104 111 114
-0.20038007 -0.31790486 -1.4844499 100 105 108
-0.13367024 -0.32616964 -1.5231138 135 138 136
-0.06163926 -0.32568008 -1.5208795 140 141 139
0.01014158 -0.32395765 -1.5128844 132 135 133
0.08097185 -0.32146576 -1.5012935 119 125 122
0.15014501 -0.31778663 -1.4841546 123 128 127
0.21791345 -0.3144209 -1.4684787 123 128 127
0.28446123 -0.31134275 -1.4541457 122 124 126
0.34970772 -0.30831337 -1.4400393 118 123 124
0.41407084 -0.30561724 -1.4274895 116 119 119
0.477819 -0.30328473 -1.4166383 124 127 127
0.54033166 -0.3008365 -1.4052453 128 129 128
0.6038455 -0.29941913 -1.3986696 118 122 124
0.6686625 -0.29886264 -1.3961171 116 118 118
0.73267376 -0.29807743 -1.3924953 120 121 119
0.80235386 -0.29953602 -1.3993614 126 123 120
0.88143283 -0.30401206 -1.4203327 131 127 123
-0.6811573 -0.30515593 -1.1652559 90 92 95
-0.6285963 -0.3063995 -1.170043 81 84 86
-0.57900286 -0.30946758 -1.1818007 68 73 75
-0.52828395 -0.3125272 -1.193527 80 83 86
-0.47563446 -0.31504312 -1.2031766 91 92 94
-0.42101038 -0.31676078 -1.2097765 64 67 69
-0.3703544 -0.32246798 -1.2316209 44 46 48
-0.3172524 -0.32778314 -1.2519686 83 81 83
-0.26233432 -0.33323523 -1.2728409 123 125 129
-0.21602014 -0.3560755 -1.3601596 126 130 133
-0.16979381 -0.39844894 -1.5221281 125 123 119
-0.09781622 -0.39856222 -1.5226083 138 138 135
-0.025708018 -0.39735124 -1.5180275 139 139 135
0.045722943 -0.39404035 -1.5054212 117 116 113
0.115955755 -0.39071932 -1.4927753 130 127 122
0.1839626 -0.38524422 -1.4718958 125 121 116
0.25081974 -0.3810289 -1.4558299 102 104 103
0.31538346 -0.37589428 -1.4362491 101 103 104
0.37787572 -0.37054738 -1.4158561 132 129 120
0.44010648 -0.3665924 -1.4007821 136 136 129
0.50079983 -0.3625587 -1.3854063 128 128 123
0.56252575 -0.36011884 -1.3761225 117 120 120
0.6247855 -0.3584905 -1.36994 101 104 106
0.68591243 -0.35657844 -1.362673 96 101 100
0.7490992 -0.3559727 -1.3603994 95 98 98
0.8143938 -0.35638416 -1.3620147 97 102 103
-0.6783772 -0.37389302 -1.2074877 17 17 18
-0.6330516 -0.38103482 -1.2305939 16 17 17
-0.5867087 -0.38895217 -1.2562068 15 15 18
-0.54079705 -0.3989745 -1.2886219 9 12 13
-0.4829684 -0.4016518 -1.2973082 0 1 5
-0.42252478 -0.40262312 -1.3004835 36 37 38
-0.3553753 -0.39646053 -1.2806093 13 11 17
-0.29462248 -0.39635357 -1.2803001 34 33 32
-0.2383589 -0.4037803 -1.3043338 67 65 69
-0.19694664 -0.45025674 -1.4545482 63 65 67
-0.12896857 -0.45354727 -1.4652226 89 95 94
-0.05938293 -0.45232034 -1.4612995 101 106 105
0.0098093 -0.45015484 -1.4543433 85 90 91
0.07807282 -0.4464537 -1.4424239 77 84 85
0.14469762 -0.44120336 -1.4254974 83 89 90
0.21022132 -0.4370054 -1.4119711 89 93 95
0.27435887 -0.43264627 -1.397923 81 86 88
0.33641282 -0.42733407 -1.3807939 77 81 85
0.3979498 -0.42320132 -1.3674757 72 77 80
0.4588366 -0.4196304 -1.3559728 77 79 81
0.5193099 -0.4166042 -1.3462299 83 85 87
0.58126056 -0.41529483 -1.3420358 87 90 90
0.6438217 -0.4146358 -1.3399439 99 102 102
0.70612645 -0.41394395 -1.3377454 105 110 109
0.76923597 -0.4137979 -1.3373115 104 107 107
0.827389 -0.41121027 -1.3289845 101 106 105
-0.757506 -0.46185026 -1.2916254 7 4 6
-0.7052063 -0.46780992 -1.3083303 1 2 3
-0.65121496 -0.47369167 -1.324818 25 28 30
-0.5940962 -0.47831604 -1.3377894 11 12 15
-0.5369744 -0.4840448 -1.3538507 3 3 6
-0.47671026 -0.48811802 -1.3652817 3 2 3
-0.41047457 -0.48640814 -1.3605345 15 15 18
-0.34393862 -0.4836415 -1.3528306 18 19 22
-0.27665544 -0.47832048 -1.33798 15 15 20
-0.2169931 -0.48689637 -1.3620092 43 46 46
-0.15532152 -0.49633357 -1.3884495 74 79 80
-0.08906117 -0.49428675 -1.3827596 77 82 83
-0.023367688 -0.49275294 -1.3785049 78 83 84
0.04186495 -0.49056926 -1.3724314 74 79 81
0.10639887 -0.48783246 -1.3648099 71 78 78
0.16988906 -0.48418725 -1.3546461 69 74 76
0.23281847 -0.48138255 -1.3468336 81 83 85
0.29400706 -0.47695887 -1.3344903 75 80 81
0.3539927 -0.47249606 -1.3220367 77 80 82
0.41494834 -0.4704769 -1.3164213 73 76 78
0.47581562 -0.46889806 -1.3120377 64 66 70
0.5358586 -0.46696502 -1.3066627 66 66 71
0.600555 -0.46906713 -1.3125807 78 81 85
0.6638464 -0.46977842 -1.3146067 92 95 95
0.72695327 -0.47024718 -1.3159536 95 98 98
0.78966063 -0.4704029 -1.3164245 85 88 90
-0.7151526 -0.5147074 -1.2688442 29 28 32
-0.6561605 -0.51574194 -1.271427 77 76 78
-0.5975705 -0.5173352 -1.2753873 91 97 94
-0.5400853 -0.5203521 -1.282858 51 54 52
-0.48504844 -0.52679306 -1.2987719 6 9 11
-0.42458093 -0.5283645 -1.3026793 5 7 9
-0.36214676 -0.52761334 -1.30086 23 24 24
-0.30028746 -0.52756363 -1.3007704 31 34 36
-0.23810552 -0.5267793 -1.2988688 53 56 56
-0.17723835 -0.52936625 -1.3052812 80 83 83
-0.11517931 -0.5292815 -1.3051051 68 73 74
-0.053150307 -0.52931046 -1.3052095 67 74 75
0.008870601 -0.52832186 -1.3028042 71 78 79
0.07072364 -0.5278038 -1.3015593 62 66 68
0.13210443 -0.5258801 -1.2968478 57 62 63
0.19346753 -0.5251317 -1.2950348 55 57 60
0.25409478 -0.5232252 -1.2903651 66 68 71
0.31354678 -0.520108 -1.282709 68 73 74
0.37365568 -0.5189176 -1.2798052 81 86 88
0.4344757 -0.518909 -1.2798162 65 69 71
0.49492982 -0.5185178 -1.2788835 62 65 69
0.55848 -0.5211004 -1.2852864 65 68 70
0.62278056 -0.52380353 -1.291987 62 65 67
0.6867326 -0.5257534 -1.2968296 57 60 62
0.7489649 -0.52617264 -1.2978965 72 73 74
0.80904686 -0.5251315 -1.2953608 74 77 77
-0.7089724 -0.54699224 -1.2051134 61 60 60
-0.6522398 -0.5475284 -1.2063237 59 58 57
-0.5967455 -0.5493075 -1.210273 92 95 93
-0.5397618 -0.54995215 -1.2117227 76 77 75
-0.48365027 -0.55174595 -1.2157043 111 112 106
-0.42968783 -0.5568089 -1.2268902 47 50 50
-0.37246525 -0.5585835 -1.2308304 47 50 50
-0.31383404 -0.55851954 -1.2307191 55 58 56
-0.2554531 -0.5589753 -1.231753 69 72 72
-0.19728659 -0.56031233 -1.2347294 55 58 59
-0.13871384 -0.561148 -1.2366006 58 63 64
-0.07990667 -0.56157917 -1.2375809 58 63 64
-0.021049585 -0.5631055 -1.2409748 63 66 68
0.038080472 -0.56390524 -1.2427672 61 66 67
0.097510874 -0.5654692 -1.2462442 63 65 67
0.1570056 -0.5660753 -1.2476101 56 58 60
0.21699198 -0.56763303 -1.2510735 56 59 59
0.27695498 -0.5684684 -1.2529452 58 61 61
0.33685404 -0.5688972 -1.2539204 60 61 60
0.397993 -0.570975 -1.2585309 60 61 64
0.45909154 -0.57245684 -1.2618277 57 59 61
0.52167654 -0.5752338 -1.2679796 59 62 62
0.58800036 -0.58112925 -1.2810066 66 69 69
0.655175 -0.5866771 -1.2932676 55 58 58
0.717061 -0.58694065 -1.2938799 59 62 62
0.77565813 -0.5846825 -1.2889328 60 62 62
